-9.02040005 8.30200005 -1.32079995
-8.99790001 8.27449989 -1.30970001
-9.01879978 8.32059956 -1.29750001
-9.03409958 8.31219959 -1.31610000
-9.03339958 8.32190037 -1.31509995
-8.94659996 8.30879974 -1.22549999
-8.93889999 8.29310036 -1.24349999
-9.01329994 8.32400036 -1.30190003
-9.02519989 8.27509975 -1.35800004
-8.95839977 8.30570030 -1.24100006
-9.03520012 8.31350040 -1.32089996
-9.03689957 8.31709957 -1.32330000
-9.01150036 8.31190014 -1.30509996
-9.02420044 8.25189972 -1.38520002
-9.01809978 8.31809998 -1.30589998
-9.00020027 8.28960037 -1.30200005
-8.97089958 8.30000019 -1.28040004
-8.93179989 8.33580017 -1.20510006
-9.03629971 8.32900047 -1.31739998
-8.98869991 8.29240036 -1.28950000
-8.96090031 8.30620003 -1.25440001
-8.94400024 8.32919979 -1.21350002
-8.95800018 8.30280018 -1.24329996
-8.94219971 8.31130028 -1.21990001
-8.99600029 8.28769970 -1.30229998
-8.94270039 8.33469963 -1.21210003
-9.01220036 8.26930046 -1.32140005
-8.96350002 8.29409981 -1.28699994
-9.01949978 8.27159977 -1.32889998
-8.95049953 8.31639957 -1.21860003
-8.96749973 8.33090019 -1.24349999
-8.96689987 8.28989983 -1.29149997
-9.02980042 8.32149982 -1.31560004
-9.01430035 8.25440025 -1.32190001
-8.92599964 8.32740021 -1.19959998
-9.02550030 8.31669998 -1.31509995
-8.96910000 8.29559994 -1.27980006
-8.95919991 8.29619980 -1.28219998
-8.99489975 8.31169987 -1.28559995
-9.00179958 8.30679989 -1.29760003
-9.01949978 8.25979996 -1.32889998
-8.98320007 8.26710033 -1.30299997
-8.96560001 8.30410004 -1.26419997
-8.94760036 8.30780029 -1.23889995
-9.02140045 8.24839973 -1.34889996
-8.98270035 8.31659985 -1.26540005
-9.03020000 8.31700039 -1.31309998
-8.93999958 8.29769993 -1.25100005
-8.96790028 8.29209995 -1.28840005
-8.98190022 8.30410004 -1.27139997
-9.01860046 8.24680042 -1.34270000
-8.99820042 8.30539989 -1.29299998
-9.03050041 8.25739956 -1.40330005
-8.94019985 8.32559967 -1.21220005
-9.00020027 8.26430035 -1.30760002
-8.96049976 8.30490017 -1.24619997
-8.96800041 8.27499962 -1.29369998
-8.94099998 8.30869961 -1.21379995
-8.92420006 8.33209991 -1.19990003
-9.00809956 8.29129982 -1.31099999
-8.92399979 8.32460022 -1.20079994
-8.93690014 8.30220032 -1.20940006
-8.98890018 8.27470016 -1.29820001
-8.95569992 8.30939960 -1.23599994
-8.92409992 8.30309963 -1.20459998
-9.01029968 8.30819988 -1.30439997
-9.02210045 8.25850010 -1.35200000
-8.96990013 8.31019974 -1.25150001
-9.03020000 8.25629997 -1.35130000
-9.03069973 8.32479954 -1.31260002
-8.94919968 8.29409981 -1.26859999
-8.98560047 8.30039978 -1.28269994
-9.00039959 8.31130028 -1.29250002
-8.93900013 8.29710007 -1.23670006
-8.92730045 8.29669952 -1.20539999
-9.01749992 8.31929970 -1.30869997
-8.92879963 8.32740021 -1.20319998
-8.97109985 8.33460045 -1.24479997
-8.97270012 8.30650043 -1.26760006
-8.95639992 8.29920006 -1.26730001
-8.98760033 8.29730034 -1.28799999
-8.95269966 8.29759979 -1.25919998
-9.02079964 8.32229996 -1.30470002
-9.01690006 8.27620029 -1.32679999
-8.95549965 8.29399967 -1.29069996
-9.00160027 8.26959991 -1.31299996
-9.00500011 8.31200027 -1.29849994
-8.93579960 8.33409977 -1.20679998
-8.97389984 8.31960011 -1.25329995
-8.97539997 8.27880001 -1.29400003
-8.96490002 8.32600021 -1.23989999
-9.02499962 8.31000042 -1.31750000
-9.01560020 8.25940037 -1.32379997
-9.02970028 8.25800037 -1.39610004
-8.96189976 8.31239986 -1.23790002
-8.99110031 8.30300045 -1.28600001
-8.96310043 8.30249977 -1.25619996
-8.96469975 8.30290031 -1.26069999
-8.94270039 8.31190014 -1.21389997
-8.97840023 8.30580044 -1.26359999
-8.98530006 8.28439999 -1.29410005
-8.94620037 8.30739975 -1.23549998
-9.02340031 8.30469990 -1.32620001
-8.96160030 8.31130028 -1.24170005
-8.97019958 8.32759953 -1.24409997
-8.95359993 8.29240036 -1.28129995
-8.98379993 8.27079964 -1.30550003
-8.94559956 8.29740047 -1.25419998
-9.01970005 8.24860001 -1.34599996
-9.02770042 8.27509975 -1.36150002
-8.94880009 8.32909966 -1.21589994
-8.97019958 8.30449963 -1.27380002
-8.97000027 8.27299976 -1.30060005
-9.01790047 8.26949978 -1.32620001
-8.98460007 8.29689980 -1.28480005
-9.00899982 8.25349998 -1.31869996
-9.02680016 8.29749966 -1.33329999
-8.94909954 8.31359959 -1.22490001
-8.97809982 8.30529976 -1.27160001
-8.93680000 8.32499981 -1.21019995
-9.01739979 8.29950047 -1.31930006
-9.02140045 8.27060032 -1.33220005
-8.93690014 8.29419994 -1.23319995
-8.98740005 8.27900028 -1.29970002
-8.91479969 8.30239964 -1.20109999
-9.00090027 8.26060009 -1.31659997
-8.92980003 8.31779957 -1.20459998
-8.95750046 8.33670044 -1.23329997
-8.94830036 8.28950024 -1.28230000
-8.94869995 8.29419994 -1.28359997
-8.99230003 8.31350040 -1.28030002
-8.97719955 8.26930046 -1.30190003
-9.00549984 8.29880047 -1.30330002
-8.97439957 8.30809975 -1.25779998
-9.01879978 8.25399971 -1.33239996
-9.01509953 8.32419968 -1.30499995
-8.95489979 8.29479980 -1.27789998
-8.96739960 8.31809998 -1.24559999
-8.96870041 8.30300045 -1.25870001
-9.00889969 8.32279968 -1.29460001
-9.02070045 8.25020027 -1.34270000
-9.02750015 8.28629971 -1.34029996
-8.98159981 8.32190037 -1.26230001
-8.97379971 8.32320023 -1.25290000
-8.93389988 8.32269955 -1.20369995
-8.91810036 8.30300045 -1.20200002
-8.95629978 8.29129982 -1.28219998
-8.95370007 8.33339977 -1.22490001
-8.96739960 8.28439999 -1.28950000
-9.01410007 8.30799961 -1.30569994
-8.99460030 8.27729988 -1.30900002
-8.94869995 8.33500004 -1.21980000
-8.96749973 8.29160023 -1.28209996
-8.99230003 8.29170036 -1.28960001
-8.94789982 8.30239964 -1.24319994
-8.99849987 8.27250004 -1.30620003
-9.01259995 8.27859974 -1.32050002
-9.02499962 8.30550003 -1.31780005
-8.95580006 8.31289959 -1.23259997
-8.98950005 8.31649971 -1.27750003
-8.95699978 8.28380013 -1.29209995
-9.02810001 8.25539970 -1.38569999
-8.96129990 8.30749989 -1.24930000
-9.01720047 8.24460030 -1.34529996
-8.95349979 8.29740047 -1.27649999
-8.99479961 8.28299999 -1.29960001
-8.92319965 8.32950020 -1.20169997
-8.93200016 8.32110023 -1.21080005
-8.95660019 8.28919983 -1.28750002
-8.99909973 8.28170013 -1.30270004
-8.98410034 8.27490044 -1.29740000
-9.00549984 8.26299953 -1.31340003
-8.98939991 8.27470016 -1.30509996
-9.01509953 8.24790001 -1.32179999
-8.94779968 8.29689980 -1.25179994
-8.94550037 8.29430008 -1.24950004
-8.98139954 8.26340008 -1.30180001
-8.98400021 8.30160046 -1.28600001
-8.99489975 8.27390003 -1.31089997
-9.02299976 8.26200008 -1.34560001
-8.97340012 8.30300045 -1.26639998
-8.95380020 8.31040001 -1.23850000
-9.02460003 8.25629997 -1.33860004
-8.97900009 8.27550030 -1.30009997
-8.94019985 8.31369972 -1.21150005
-9.01560020 8.30280018 -1.31029999
-8.98970032 8.29590034 -1.28269994
-8.98110008 8.29590034 -1.28470004
-8.96500015 8.29599953 -1.27610004
-8.97620010 8.30809975 -1.27010000
-8.98810005 8.30900002 -1.27639997
-8.97599983 8.32369995 -1.24979997
-9.03610039 8.31970024 -1.31620002
-8.92689991 8.31610012 -1.20539999
-9.03209972 8.30879974 -1.33159995
-8.98770046 8.29810047 -1.28219998
-9.02019978 8.27980042 -1.33070004
-8.98910046 8.31779957 -1.27030003
-8.99020004 8.26270008 -1.30569994
-9.01130009 8.31000042 -1.29920006
-8.91790009 8.29940033 -1.20229995
-8.94460011 8.32730007 -1.21650004
-9.02250004 8.24629974 -1.35249996
-8.92189980 8.32129955 -1.20000005
-8.96160030 8.30570030 -1.25769997
-8.93640041 8.29570007 -1.21000004
-8.94540024 8.30090046 -1.24469995
-8.96660042 8.30860043 -1.24269998
-8.98180008 8.30939960 -1.27090001
-8.97900009 8.27009964 -1.29939997
-8.96430016 8.29839993 -1.27180004
-8.96879959 8.30300045 -1.28460002
-9.02239990 8.30860043 -1.31809998
-9.02149963 8.24680042 -1.34169996
-9.00930023 8.26329994 -1.32130003
-8.95349979 8.29969978 -1.24689996
-9.02620029 8.25109959 -1.34819996
-8.93480015 8.30020046 -1.21120000
-8.97710037 8.32680035 -1.25489998
-8.98379993 8.31910038 -1.26300001
-9.01389980 8.32100010 -1.30120003
-9.00969982 8.27910042 -1.31570005
-9.00179958 8.31340027 -1.28989995
-8.94239998 8.33790016 -1.21130002
-9.02250004 8.25220013 -1.34549999
-8.94620037 8.33100033 -1.21589994
-8.99349976 8.30959988 -1.28209996
-8.94779968 8.30980015 -1.22839999
-8.96749973 8.30010033 -1.26919997
-9.01529980 8.30599976 -1.31019998
-8.97770023 8.29179955 -1.28620005
-8.99489975 8.26169968 -1.31029999
-8.99269962 8.28600025 -1.30229998
-8.97319984 8.29940033 -1.27690005
-9.02550030 8.32369995 -1.30970001
-8.95049953 8.31169987 -1.22679996
-8.94690037 8.32180023 -1.21529996
-9.02009964 8.32549953 -1.30490005
-8.95610046 8.30350018 -1.24790001
-8.93980026 8.29870033 -1.23399997
-8.97369957 8.30309963 -1.27629995
-8.96350002 8.31659985 -1.24160004
-8.94939995 8.29780006 -1.25479996
-8.97000027 8.31070042 -1.25750005
-9.01039982 8.24829960 -1.31760001
-9.01000023 8.30029964 -1.31050003
-8.97000027 8.30480003 -1.26639998
-9.02890015 8.25549984 -1.36440003
-8.92020035 8.32439995 -1.19620001
-9.03590012 8.31680012 -1.31459999
-9.02670002 8.33209991 -1.30850005
-9.00249958 8.25240040 -1.31280005
-8.95119953 8.34150028 -1.21990001
-8.97659969 8.28009987 -1.29680002
-9.02079964 8.28680038 -1.33239996
-8.94439983 8.30220032 -1.23850000
-8.99820042 8.26280022 -1.30999994
-8.99050045 8.28520012 -1.29069996
-9.02280045 8.29609966 -1.32630002
-8.98180008 8.26869965 -1.29849994
-8.98519993 8.28110027 -1.29470003
-8.98149967 8.26970005 -1.30180001
-8.99860001 8.25730038 -1.31620002
-8.97690010 8.30309963 -1.26820004
-9.00539970 8.27219963 -1.31620002
-8.96119976 8.29559994 -1.28830004
-9.03610039 8.31709957 -1.31819999
-9.02540016 8.25049973 -1.41110003
-8.95339966 8.31849957 -1.22800004
-8.93579960 8.29199982 -1.24510002
-8.97710037 8.28639984 -1.29330003
-8.97819996 8.29669952 -1.28310001
-8.93130016 8.30459976 -1.20710003
-9.00469971 8.32170010 -1.29110003
-9.00399971 8.31029987 -1.29040003
-9.01329994 8.30290031 -1.31389999
-8.98390007 8.27550030 -1.30089998
-8.94830036 8.33090019 -1.21910000
-9.02060032 8.24489975 -1.33539999
-8.99050045 8.30060005 -1.28770006
-8.93889999 8.29800034 -1.22319996
-8.95639992 8.33829975 -1.22679996
-9.02740002 8.30850029 -1.32050002
-8.96389961 8.32970047 -1.23420000
-8.97299957 8.30539989 -1.27139997
-8.96640015 8.29520035 -1.28779995
-9.00119972 8.30760002 -1.28970003
-9.03940010 8.32909966 -1.31900001
-9.02509975 8.25279999 -1.34220004
-8.95450020 8.28619957 -1.28729999
-9.02919960 8.29749966 -1.33980000
-8.98029995 8.26850033 -1.30480003
-8.95049953 8.31089973 -1.23539996
-9.02369976 8.26790047 -1.34959996
-8.95540047 8.29780006 -1.26259995
-9.01980019 8.32289982 -1.30770004
-8.97809982 8.31659985 -1.25829995
-8.95899963 8.32250023 -1.23430002
-8.96049976 8.33510017 -1.22880006
-8.98250008 8.26130009 -1.30410004
-8.94219971 8.31719971 -1.21329999
-8.94540024 8.30570030 -1.22880006
-8.95129967 8.29209995 -1.27849996
-8.98620033 8.27799988 -1.30379999
-8.95639992 8.28680038 -1.29089999
-9.00070000 8.32789993 -1.28890002
-9.01589966 8.30319977 -1.31599998
-8.97319984 8.29660034 -1.28209996
-9.01189995 8.30500031 -1.31130004
-9.02649975 8.31910038 -1.31040001
-9.03349972 8.26150036 -1.38940001
-8.91759968 8.31680012 -1.19920003
-9.00699997 8.28419971 -1.31210005
-8.93159962 8.32849979 -1.20330000
-8.95899963 8.29469967 -1.28540003
-9.02099991 8.31989956 -1.30990005
-8.95629978 8.29800034 -1.27890003
-9.02859974 8.30490017 -1.32910001
-9.02040005 8.25570011 -1.33899999
-9.01519966 8.29629993 -1.32369995
-8.99219990 8.26119995 -1.31270003
-8.93830013 8.33450031 -1.21109998
-9.02149963 8.30340004 -1.32369995
-8.98789978 8.28600025 -1.29320002
-8.99050045 8.28009987 -1.29900002
-8.98649979 8.31159973 -1.27499998
-9.00409985 8.28230000 -1.30939996
-8.92570019 8.29979992 -1.20490003
-8.94429970 8.30630016 -1.24160004
-8.96749973 8.30239964 -1.26170003
-9.00969982 8.33990002 -1.30079997
-9.00329971 8.28909969 -1.30509996
-9.02569962 8.25160027 -1.36549997
-8.94299984 8.30109978 -1.23409998
-8.96570015 8.30679989 -1.25460005
-9.00199986 8.28219986 -1.30719995
-9.00870037 8.30350018 -1.30429995
-8.95069981 8.31169987 -1.22979999
-8.95440006 8.30580044 -1.24520004
-8.95909977 8.34510040 -1.22430003
-9.02420044 8.32940006 -1.30970001
-8.93680000 8.29520035 -1.24440002
-9.01089954 8.26650047 -1.32149994
-8.95759964 8.30090046 -1.27649999
-9.02270031 8.28540039 -1.33440006
-9.00209999 8.27309990 -1.30960000
-9.01239967 8.27309990 -1.31920004
-8.97560024 8.30550003 -1.26160002
-8.96150017 8.29689980 -1.27980006
-8.96539974 8.30319977 -1.26849997
-9.02229977 8.27420044 -1.33379996
-9.00039959 8.26710033 -1.31019998
-9.02140045 8.24979973 -1.36740005
-9.02239990 8.33479977 -1.30719995
-9.01930046 8.24919987 -1.35819995
-8.96770000 8.29920006 -1.27670002
-9.01490021 8.25300026 -1.32939994
-9.02550030 8.29899979 -1.32290006
-8.98690033 8.29950047 -1.28550005
-9.01189995 8.32649994 -1.30030000
-8.93999958 8.33080006 -1.21070004
-9.02729988 8.27009964 -1.36329997
-8.99479961 8.30840015 -1.28480005
-9.01720047 8.29909992 -1.32340002
-9.02019978 8.25109959 -1.35339999
-9.00189972 8.29160023 -1.30040002
-8.96889973 8.30830002 -1.25390005
-8.94120026 8.29150009 -1.25709999
-9.01760006 8.25660038 -1.33459997
-8.96669960 8.27320004 -1.29610002
-9.02810001 8.29510021 -1.33560002
-8.97480011 8.29049969 -1.28569996
-9.02040005 8.24829960 -1.36500001
-8.98960018 8.30449963 -1.28139997
-8.98159981 8.31019974 -1.26639998
-9.00539970 8.25920010 -1.31630003
-9.00580025 8.30410004 -1.30289996
-8.94340038 8.30749989 -1.21870005
-8.97109985 8.28689957 -1.29030001
-8.95709991 8.33479977 -1.22420001
-8.93169975 8.29749966 -1.20850003
-8.94869995 8.31429958 -1.21990001
-8.99139977 8.29650021 -1.29380000
-8.96590042 8.29520035 -1.28250003
-8.99750042 8.31350040 -1.28840005
-9.02410030 8.27719975 -1.33679998
-8.94379997 8.29100037 -1.25530005
-8.95689964 8.29810047 -1.25160003
-9.02649975 8.29969978 -1.33089995
-8.95240021 8.30990028 -1.23239994
-8.99370003 8.28890038 -1.29550004
-8.96290016 8.34140015 -1.23269999
-9.03610039 8.32530022 -1.31830001
-8.95479965 8.33559990 -1.22679996
-8.97179985 8.32269955 -1.24960005
-8.99510002 8.31019974 -1.27929997
-9.02289963 8.31960011 -1.31320000
-8.97049999 8.29870033 -1.27250004
-8.95339966 8.32759953 -1.22640002
-8.96850014 8.27550030 -1.29849994
-9.00059986 8.25520039 -1.31320000
-8.95899963 8.31239986 -1.24000001
-9.03050041 8.31849957 -1.31599998
-8.93319988 8.29549980 -1.21029997
-8.98289967 8.30070019 -1.28009999
-8.92809963 8.29870033 -1.21029997
-8.94649982 8.29380035 -1.25450003
-8.96749973 8.32190037 -1.24539995
-9.02099991 8.32820034 -1.30299997
-8.93260002 8.31099987 -1.20879996
-9.02530003 8.29090023 -1.34000003
-8.94610023 8.29209995 -1.26940000
-8.98569965 8.30200005 -1.27950001
-9.02540016 8.25080013 -1.34529996
-8.95730019 8.30879974 -1.24259996
-9.01329994 8.31919956 -1.29830003
-8.96609974 8.31890011 -1.24230003
-8.93959999 8.29440022 -1.24640000
-8.93830013 8.31110001 -1.21140003
-8.95839977 8.31070042 -1.24820006
-8.95079994 8.33390045 -1.22319996
-8.98229980 8.28719997 -1.28999996
-9.01770020 8.24759960 -1.34829998
-9.00090027 8.25399971 -1.31599998
-8.99820042 8.26939964 -1.31270003
-8.94999981 8.32100010 -1.22179997
-8.99230003 8.27229977 -1.30700004
-8.95470047 8.30029964 -1.25240004
-8.93770027 8.29199982 -1.25290000
-9.00650024 8.29669952 -1.30669999
-9.00249958 8.28409958 -1.30439997
-8.95269966 8.29599953 -1.28050005
-8.97589970 8.29199982 -1.29159999
-8.94229984 8.29209995 -1.26820004
-9.00679970 8.33080006 -1.29480004
-8.94400024 8.32100010 -1.21580005
-8.97280025 8.28110027 -1.29380000
-9.00039959 8.25909996 -1.31190002
-9.00590038 8.28890038 -1.30890000
-8.95100021 8.29479980 -1.26040006
-9.02670002 8.29689980 -1.32900000
-9.01970005 8.31410027 -1.30739999
-9.00279999 8.30809975 -1.29289997
-9.01449966 8.33720016 -1.30330002
-9.01029968 8.30340004 -1.30760002
-8.97589970 8.27320004 -1.29540002
-8.98349953 8.32670021 -1.26069999
-9.03339958 8.31110001 -1.33379996
-8.93229961 8.31890011 -1.20760000
-8.98130035 8.32190037 -1.25860000
-8.97070026 8.30340004 -1.27919996
-9.02219963 8.30510044 -1.31599998
-8.98719978 8.31429958 -1.27300000
-8.94869995 8.29380035 -1.24950004
-8.97150040 8.32439995 -1.24389994
-8.95199966 8.30350018 -1.25250006
-9.00349998 8.25450039 -1.31830001
-9.00759983 8.25179958 -1.31599998
-9.02280045 8.30469990 -1.32019997
-8.96220016 8.33609962 -1.23239994
-8.95629978 8.31439972 -1.23510003
-8.96230030 8.28030014 -1.29569995
-9.02270031 8.25269985 -1.33650005
-8.98449993 8.28929996 -1.28989995
-8.97280025 8.30239964 -1.25999999
-8.99709988 8.26049995 -1.31560004
-8.99860001 8.25220013 -1.31099999
-8.98890018 8.29090023 -1.28520000
-8.96889973 8.28079987 -1.29519999
-9.03450012 8.32750034 -1.31459999
-8.95960045 8.28689957 -1.29310000
-8.95549965 8.28969955 -1.29149997
-9.02519989 8.26509953 -1.35650003
-8.99479961 8.26309967 -1.30530000
-8.95409966 8.30220032 -1.24339998
-8.96730042 8.30529976 -1.25709999
-8.96510029 8.30039978 -1.27849996
-8.95769978 8.30010033 -1.25619996
-9.01840019 8.33090019 -1.30610001
-8.99110031 8.26970005 -1.30830002
-9.00440025 8.25329971 -1.31560004
-8.93439960 8.30900002 -1.21220005
-9.01389980 8.32059956 -1.49860001
-9.01949978 8.31449986 -1.49989998
-9.00609970 8.32129955 -1.49559999
-8.99489975 8.32549953 -1.49300003
-8.98600006 8.32800007 -1.49240005
-8.91790009 8.31980038 -1.45200002
-8.97770023 8.33069992 -1.49119997
-9.00310040 8.31970024 -1.49460006
-8.99890041 8.32050037 -1.49129999
-8.98830032 8.32100010 -1.48959994
-9.01459980 8.31620026 -1.49699998
-8.97210026 8.32750034 -1.48679996
-9.01019955 8.31729984 -1.49740005
-8.98490047 8.32279968 -1.48839998
-8.99530029 8.32170010 -1.49290001
-9.03139973 8.25930023 -1.40939999
-8.99849987 8.32180023 -1.49419999
-9.00010014 8.31890011 -1.49450004
-8.98400021 8.32709980 -1.48920000
-9.02849960 8.25559998 -1.41380000
-8.97539997 8.32419968 -1.48580003
-8.98369980 8.33040047 -1.49419999
-9.02989960 8.25730038 -1.41670001
-8.98929977 8.32549953 -1.49160004
-8.97970009 8.32190037 -1.48590004
-8.98980045 8.33020020 -1.49479997
-9.00889969 8.32040024 -1.49670005
-8.99120045 8.32530022 -1.49479997
-9.00539970 8.32429981 -1.49800003
-8.98159981 8.32929993 -1.49179995
-8.99209976 8.32030010 -1.49150002
-8.91349983 8.32950020 -1.19770002
-8.84290028 8.32549953 -1.41709995
-8.83180046 8.33539963 -1.41509998
-8.87790012 8.32999992 -1.18030000
-8.84799957 8.33590031 -1.41869998
-8.90170002 8.31369972 -1.19770002
-8.82970047 8.33150005 -1.41810000
-8.81830025 8.33920002 -1.40939999
-8.84060001 8.33370018 -1.42060006
-8.82330036 8.33119965 -1.40950000
-8.81690025 8.33110046 -1.41170001
-8.88440037 8.32470036 -1.19070005
-8.85449982 8.32139969 -1.42079997
-8.86690044 8.32129955 -1.42069995
-8.85169983 8.32289982 -1.41830003
-8.85470009 8.32359982 -1.42309999
-8.90100002 8.32349968 -1.19480002
-8.89830017 8.32240009 -1.19379997
-8.85770035 8.32820034 -1.42299998
-8.78909969 8.33269978 -1.40810001
-8.80039978 8.33049965 -1.40540004
-8.81040001 8.33790016 -1.40149999
-8.79510021 8.33380032 -1.40890002
-8.89719963 8.33689976 -1.19169998
-8.81439972 8.33580017 -1.40939999
-8.91749954 8.32120037 -1.19799995
-8.82439995 8.33450031 -1.41100001
-8.89729977 8.31400013 -1.19050002
-8.90989971 8.33290005 -1.19379997
-8.82709980 8.33570004 -1.41229999
-8.91629982 8.32800007 -1.19560003
-8.78899956 8.33590031 -1.40649998
-8.89589977 8.31560040 -1.19599998
-8.80609989 8.33460045 -1.40079999
-8.81050014 8.33069992 -1.41149998
-8.91049957 8.32079983 -1.19579995
-8.91300011 8.31709957 -1.20469999
-8.78969955 8.34500027 -1.40400004
-8.79679966 8.34039974 -1.40480006
-8.82159996 8.33020020 -1.41219997
-8.85070038 8.33020020 -1.41859996
-8.84519958 8.33710003 -1.41980004
-8.84879971 8.32390022 -1.42149997
-8.88459969 8.32870007 -1.18560004
-8.85449982 8.32940006 -1.41429996
-8.84749985 8.32779980 -1.41919994
-8.83500004 8.32730007 -1.41949999
-8.85350037 8.33409977 -1.41980004
-8.89280033 8.32870007 -1.19260001
-8.79489994 8.33759975 -1.40830004
-8.90919971 8.31200027 -1.20210004
-8.85159969 8.32970047 -1.41559994
-8.90620041 8.32470036 -1.19169998
-8.79679966 8.33640003 -1.40559995
-8.80440044 8.33740044 -1.41030002
-8.83829975 8.32900047 -1.41480005
-8.80459976 8.34150028 -1.40069997
-8.83220005 8.32800007 -1.41279995
-8.79609966 8.33049965 -1.40579998
-8.86590004 8.31639957 -1.42190003
-8.83810043 8.32830048 -1.42009997
-8.86600018 8.32180023 -1.42420006
-8.90869999 8.32479954 -1.19560003
-8.79100037 8.33839989 -1.40369999
-8.80710030 8.33769989 -1.40170002
-8.83450031 8.33370018 -1.41520000
-8.90349960 8.32649994 -1.19400001
-8.78820038 8.34440041 -1.40670002
-8.81149960 8.32870007 -1.40919995
-8.79290009 8.33069992 -1.40320003
-8.83650017 8.33530045 -1.41989994
-8.85779953 8.32520008 -1.41709995
-8.91679955 8.33329964 -1.19980001
-8.78940010 8.33920002 -1.40730000
-8.90970039 8.32779980 -1.20000005
-8.78549957 8.33780003 -1.40709996
-8.89589977 8.31849957 -1.19710004
-8.90419960 8.32269955 -1.19640005
-8.81459999 8.32900047 -1.40919995
-8.91069984 8.30840015 -1.20350003
-8.86380005 8.32670021 -1.41690004
-8.89830017 8.31610012 -1.19400001
-8.87230015 8.32359982 -1.41810000
-8.85999966 8.33100033 -1.41729999
-8.88449955 8.32789993 -1.19140005
-8.84140015 8.32400036 -1.41429996
-8.91199970 8.32569981 -1.19959998
-8.89770031 8.32989979 -1.18599999
-8.82250023 8.33650017 -1.40960002
-8.80459976 8.33419991 -1.40760005
-8.80169964 8.33580017 -1.40639997
-8.78999996 8.34140015 -1.40419996
-8.88780022 8.32359982 -1.18859994
-8.90610027 8.31219959 -1.19630003
-8.85690022 8.32820034 -1.41869998
-8.89340019 8.32730007 -1.18879998
-8.85249996 8.32660007 -1.41509998
-8.87090015 8.32100010 -1.42110002
-8.81869984 8.33559990 -1.40820003
-8.85890007 8.32229996 -1.42589998
-8.84759998 8.33110046 -1.41980004
-8.91199970 8.32269955 -1.19900000
-8.82429981 8.33100033 -1.41310000
-8.89869976 8.31309986 -1.19640005
-8.79790020 8.34329987 -1.40090001
-8.89840031 8.31680012 -1.19760001
-8.89999962 8.31960011 -1.19299996
-8.84210014 8.32970047 -1.41480005
-8.89570045 8.33080006 -1.18830001
-8.80420017 8.34230042 -1.40359998
-8.82199955 8.32400036 -1.41209996
-8.83220005 8.32199955 -1.41439998
-8.89640045 8.32120037 -1.19099998
-8.81830025 8.34259987 -1.41240001
-8.89630032 8.32769966 -1.18929994
-8.83259964 8.33860016 -1.41709995
-8.80609989 8.34070015 -1.40550005
-8.86419964 8.32269955 -1.42200005
-8.88239956 8.32950020 -1.18869996
-8.81929970 8.32680035 -1.41159999
-8.88249969 8.33279991 -1.18490005
-8.84599972 8.32439995 -1.42019999
-8.88109970 8.33020020 -1.18030000
-8.82260036 8.32810020 -1.40939999
-8.91240025 8.31429958 -1.20120001
-8.86159992 8.32489967 -1.42429996
-8.87919998 8.32719994 -1.18120003
-8.86400032 8.32789993 -1.42050004
-8.91119957 8.32810020 -1.19470000
-8.89620018 8.32870007 -1.19289994
-8.84889984 8.33339977 -1.41709995
-8.85739994 8.32549953 -1.42130005
-8.81320000 8.33290005 -1.40639997
-8.82330036 8.33909988 -1.41090000
-8.88599968 8.32199955 -1.19130003
-8.80130005 8.34109974 -1.39940000
-8.82839966 8.33100033 -1.41030002
-8.81040001 8.33390045 -1.41199994
-8.84340000 8.33380032 -1.41740000
-8.89039993 8.32139969 -1.19159997
-8.90369987 8.31130028 -1.19790006
-8.88220024 8.32940006 -1.18330002
-8.89109993 8.31949997 -1.19500005
-8.89389992 8.31779957 -1.19369996
-8.88819981 8.32320023 -1.19519997
-8.87969971 8.32810020 -1.18550003
-8.81379986 8.33160019 -1.40369999
-8.92099953 8.33010006 -1.19790006
-8.84300041 8.33189964 -1.41299999
-8.90629959 8.30780029 -1.20070004
-8.83780003 8.33609962 -1.41559994
-8.79959965 8.34160042 -1.40769994
-8.82199955 8.33600044 -1.41330004
-8.79189968 8.33100033 -1.40750003
-8.81579971 8.33489990 -1.40620005
-8.90330029 8.33539963 -1.19379997
-8.82050037 8.33349991 -1.41009998
-8.79269981 8.33860016 -1.40629995
-8.90769958 8.32190037 -1.19659996
-8.81149960 8.34200001 -1.40390003
-8.81379986 8.34119987 -1.40690005
-8.81320000 8.33740044 -1.40489995
-8.83629990 8.33170033 -1.41270006
-8.80280018 8.32649994 -1.40709996
-8.85009956 8.32100010 -1.42120004
-8.90680027 8.31789970 -1.20000005
-8.91069984 8.31169987 -1.19780004
-8.81000042 8.34060001 -1.40629995
-8.80449963 8.33250046 -1.40359998
-8.80860043 8.33539963 -1.40369999
-8.80510044 8.33660030 -1.40520000
-8.84029961 8.32209969 -1.41750002
-8.91450024 8.32139969 -1.19659996
-8.79740047 8.33500004 -1.40269995
-8.85169983 8.32289982 -1.42390001
-8.85410023 8.32989979 -1.41810000
-8.80500031 8.32750034 -1.40910006
-8.90130043 8.33250046 -1.18959999
-8.81289959 8.33279991 -1.41009998
-8.82719994 8.33339977 -1.41460001
-8.89280033 8.32549953 -1.19369996
-8.81459999 8.33920002 -1.40900004
-8.83749962 8.33220005 -1.41600001
-8.84459972 8.32909966 -1.41750002
-8.89120007 8.32479954 -1.19009995
-8.80739975 8.33090019 -1.40919995
-8.78750038 8.33899975 -1.40460002
-8.88609982 8.32719994 -1.18820000
-8.82450008 8.33759975 -1.41320002
-8.83230019 8.32590008 -1.41620004
-8.90419960 8.30529976 -1.19630003
-8.91160011 8.32730007 -1.19169998
-8.90939999 8.31970024 -1.20109999
-8.85270023 8.32839966 -1.42050004
-8.86800003 8.32419968 -1.42190003
-8.84449959 8.32260036 -1.41810000
-8.85470009 8.32439995 -1.42009997
-8.79430008 8.34659958 -1.40470004
-8.85830021 8.32569981 -1.42470002
-8.88350010 8.32579994 -1.18649995
-8.79930019 8.33530045 -1.41050005
-8.78699970 8.34179974 -1.40349996
-8.91199970 8.31000042 -1.20070004
-8.79959965 8.33259964 -1.40330005
-8.91559982 8.32129955 -1.20079994
-8.90419960 8.31400013 -1.19949996
-8.90919971 8.30869961 -1.19840002
-8.86289978 8.32419968 -1.41900003
-8.88939953 8.32709980 -1.18659997
-8.90130043 8.32950020 -1.19089997
-8.82180023 8.33240032 -1.41460001
-8.81900024 8.32970047 -1.40890002
-8.90709972 8.32209969 -1.19319999
-8.84049988 8.33549976 -1.41740000
-8.79389954 8.33559990 -1.40470004
-8.81939983 8.33220005 -1.40719998
-8.84619999 8.32610035 -1.41690004
-8.91279984 8.32509995 -1.19610000
-8.83549976 8.32479954 -1.41700006
-8.84819984 8.32810020 -1.42209995
-8.88780022 8.33030033 -1.18620002
-8.80480003 8.33850002 -1.39989996
-8.79570007 8.33899975 -1.40059996
-8.90760040 8.33059978 -1.19430006
-8.79100037 8.34399986 -1.40900004
-8.83759975 8.33240032 -1.41900003
-8.80749989 8.33329964 -1.40610003
-8.84980011 8.32740021 -1.41639996
-8.90190029 8.32779980 -1.18680000
-8.86009979 8.31939983 -1.42299998
-8.82960033 8.33349991 -1.41279995
-8.86639977 8.32400036 -1.41869998
-8.88770008 8.31989956 -1.43120003
-8.89000034 8.31719971 -1.43239999
-8.88210011 8.31910038 -1.42939997
-8.87639999 8.32269955 -1.42299998
-8.87069988 8.32779980 -1.41999996
-8.86909962 8.32499981 -1.42480004
-8.88389969 8.31910038 -1.43369997
-8.88070011 8.31739998 -1.42359996
-8.86660004 8.32999992 -1.42089999
-8.90760040 8.31900024 -1.44610000
-8.88179970 8.32199955 -1.42540002
-8.88560009 8.32240009 -1.43280005
-8.88700008 8.31659985 -1.42920005
-8.88459969 8.31779957 -1.43099999
-8.88169956 8.31519985 -1.43030000
-8.88570023 8.32139969 -1.42610002
-8.89750004 8.32079983 -1.43330002
-8.87450027 8.32229996 -1.42690003
-8.90489960 8.31910038 -1.44369996
-8.87150002 8.32489967 -1.42130005
-8.89799976 8.32229996 -1.43739998
-8.91030025 8.31680012 -1.44180000
-8.86139965 8.33269978 -1.42079997
-8.89159966 8.31999969 -1.43309999
-8.87430000 8.32489967 -1.42260003
-8.88749981 8.31770039 -1.42369998
-8.87930012 8.31840038 -1.42850006
-8.88729954 8.31779957 -1.43509996
-8.89850044 8.31939983 -1.43920004
-8.86489964 8.32489967 -1.42400002
-8.87580013 8.31620026 -1.42799997
-8.89840031 8.31789970 -1.43599999
-8.90400028 8.31529999 -1.43659997
-8.87110043 8.32030010 -1.42560005
-8.87139988 8.32349968 -1.42610002
-8.87689972 8.31980038 -1.42550004
-8.85260010 8.32680035 -1.42659998
-8.87979984 8.32139969 -1.42840004
-8.90439987 8.31669998 -1.44050002
-8.74880028 8.34759998 -1.40849996
-8.76910019 8.34430027 -1.40649998
-8.74790001 8.35249996 -1.41190004
-8.74129963 8.35949993 -1.40520000
-8.74610043 8.35569954 -1.40670002
-8.74820042 8.36530018 -1.41030002
-8.74730015 8.35000038 -1.40950000
-8.75539970 8.35000038 -1.40629995
-8.72999954 8.35680008 -1.40900004
-8.73589993 8.36240005 -1.41190004
-8.73830032 8.35919952 -1.40550005
-8.75570011 8.34430027 -1.40260005
-8.74129963 8.35560036 -1.41110003
-8.73810005 8.36470032 -1.41229999
-8.77470016 8.34189987 -1.40670002
-8.76070023 8.35239983 -1.41190004
-8.73299980 8.35949993 -1.41410005
-8.77550030 8.34840012 -1.40760005
-8.77110004 8.34679985 -1.40820003
-8.73589993 8.35849953 -1.40840006
-8.74180031 8.36359978 -1.41250002
-8.75549984 8.34739971 -1.40470004
-8.74450016 8.35149956 -1.41059995
-8.75000000 8.35120010 -1.41009998
-8.73299980 8.35820007 -1.41090000
-8.76060009 8.35009956 -1.40999997
-8.72200012 8.36079979 -1.41110003
-8.76070023 8.34340000 -1.40629995
-8.73079967 8.36229992 -1.41450000
-8.75510025 8.35999966 -1.40660000
-8.76609993 8.33979988 -1.40289998
-8.72850037 8.36019993 -1.40760005
-8.73060036 8.36390018 -1.40939999
-8.77200031 8.34010029 -1.40769994
-8.75119972 8.36229992 -1.40929997
-8.77639961 8.34440041 -1.40600002
-8.77810001 8.35340023 -1.40880001
-8.78120041 8.33539963 -1.40680003
-8.74559975 8.35680008 -1.40269995
-8.75230026 8.35620022 -1.40890002
-8.77149963 8.35029984 -1.40810001
-8.76360035 8.35019970 -1.40890002
-8.76500034 8.34319973 -1.40830004
-8.73019981 8.35960007 -1.41030002
-8.73970032 8.35840034 -1.40840006
-8.78030014 8.34160042 -1.41069996
-8.77140045 8.34350014 -1.40939999
-8.77509975 8.33660030 -1.40569997
-8.75279999 8.35859966 -1.41059995
-8.74330044 8.36629963 -1.41359997
-8.77610016 8.34500027 -1.40250003
-8.77740002 8.34080029 -1.40820003
-8.78890038 8.34799957 -1.40789998
-8.75549984 8.35179996 -1.40320003
-8.74829960 8.36009979 -1.41050005
-8.74699974 8.35529995 -1.41059995
-8.78439999 8.34119987 -1.40569997
-8.75489998 8.34689999 -1.40890002
-8.76990032 8.33580017 -1.40380001
-8.74330044 8.36320019 -1.40810001
-8.76319981 8.33790016 -1.40079999
-8.74450016 8.34860039 -1.40799999
-8.74979973 8.35060024 -1.40660000
-8.78269958 8.34689999 -1.40719998
-8.75570011 8.35680008 -1.40910006
-8.75339985 8.35179996 -1.41030002
-8.75549984 8.35560036 -1.40600002
-8.74040031 8.35859966 -1.41509998
-8.73610020 8.36620045 -1.41600001
-8.73849964 8.35639954 -1.41040003
-8.77830029 8.34469986 -1.40989995
-8.75080013 8.35910034 -1.40810001
-8.73880005 8.35359955 -1.40799999
-8.75749969 8.35990047 -1.40919995
-8.73910046 8.36250019 -1.40810001
-8.74689960 8.36060047 -1.40600002
-8.77830029 8.35109997 -1.40649998
-8.74709988 8.35270023 -1.40779996
-8.78369999 8.33590031 -1.40439999
-8.73750019 8.36009979 -1.41460001
-8.73190022 8.36590004 -1.41540003
-8.76830006 8.34290028 -1.40359998
-8.76669979 8.34659958 -1.40799999
-9.23729992 8.30580044 -1.05639994
-9.28160000 8.36789989 -0.94800001
-9.25710011 8.31939983 -0.99080002
-9.28470039 8.36849976 -0.96139997
-9.28979969 8.34939957 -0.96679997
-9.27929974 8.33629990 -0.97509998
-9.27810001 8.35159969 -0.97079998
-9.24370003 8.31210041 -1.00629997
-9.24499989 8.31420040 -1.02839994
-9.29940033 8.36909962 -0.95389998
-9.28209972 8.36569977 -0.95810002
-9.24030018 8.31079960 -1.04530001
-9.27700043 8.36579990 -0.96329999
-9.23919964 8.31359959 -1.03160000
-9.29909992 8.37769985 -0.93620002
-9.24020004 8.31219959 -1.03419995
-9.30370045 8.37430000 -0.93239999
-9.22789955 8.30130005 -1.05470002
-9.24740028 8.31169987 -1.02359998
-9.26830006 8.33730030 -0.98430002
-9.28719997 8.37440014 -0.94599998
-9.27480030 8.35260010 -0.96789998
-9.29940033 8.36089993 -0.95779997
-9.26000023 8.32180023 -0.98570001
-9.25839996 8.32810020 -0.98460001
-9.29409981 8.36569977 -0.95810002
-9.25139999 8.31280041 -1.00960004
-9.25370026 8.31700039 -0.99229997
-9.27900028 8.36410046 -0.95560002
-9.24829960 8.31060028 -1.00829995
-9.22350025 8.29399967 -1.06250000
-9.30270004 8.36680031 -0.93300003
-9.23139954 8.30640030 -1.05589998
-9.30340004 8.35970020 -0.95160002
-9.24590015 8.31449986 -0.99790001
-9.25259972 8.32579994 -0.98809999
-9.28969955 8.37919998 -0.93760002
-9.25329971 8.31350040 -0.99360001
-9.23980045 8.31449986 -1.01499999
-9.30379963 8.36950016 -0.93900001
-9.25100040 8.32409954 -0.99080002
-9.25440025 8.31630039 -0.98710001
-9.28940010 8.35770035 -0.96829998
-9.24520016 8.32250023 -0.99640000
-9.30179977 8.36359978 -0.94160002
-9.29780006 8.37360001 -0.92940003
-9.28919983 8.34340000 -0.96880001
-9.26630020 8.33189964 -0.98150003
-9.28359985 8.36509991 -0.96520001
-9.25990009 8.32670021 -0.99000001
-9.31680012 8.35939980 -0.92930001
-9.29479980 8.38189983 -0.93749994
-9.28320026 8.36559963 -0.96139997
-9.29249954 8.37639999 -0.94610006
-9.28199959 8.35620022 -0.96370006
-9.24450016 8.31439972 -1.02300000
-9.24349976 8.31700039 -1.02719998
-9.28520012 8.37180042 -0.94720000
-9.31270027 8.35579967 -0.93809998
-9.29580021 8.37440014 -0.94209999
-9.31939983 8.36190033 -0.92780000
-9.26910019 8.34060001 -0.98259997
-9.25119972 8.31260014 -0.99100000
-9.31260014 8.36120033 -0.94250005
-9.31449986 8.35849953 -0.93550003
-9.26099968 8.34539986 -0.98320001
-9.27299976 8.35319996 -0.97180003
-9.24839973 8.32310009 -0.99769998
-9.25220013 8.32820034 -0.99010003
-9.29640007 8.35019970 -0.96469998
-9.27789974 8.36299992 -0.96229994
-9.25930023 8.34230042 -0.98119998
-9.22459984 8.29269981 -1.05910003
-9.24069977 8.31890011 -1.00109994
-9.24820042 8.31009960 -1.01489997
-9.27470016 8.35739994 -0.97250003
-9.25809956 8.32390022 -0.99029994
-9.27680016 8.36499977 -0.96660000
-9.23229980 8.29730034 -1.06149995
-9.25030041 8.31499958 -1.01730001
-9.31079960 8.35550022 -0.94440001
-9.28779984 8.35739994 -0.96579999
-9.30060005 8.37790012 -0.92559999
-9.30990028 8.35779953 -0.94220001
-9.29979992 8.35190010 -0.96319997
-9.31680012 8.36410046 -0.92830002
-9.29409981 8.35690022 -0.95880002
-9.28629971 8.36870003 -0.94650000
-9.27460003 8.36219978 -0.96090001
-9.28969955 8.34510040 -0.97549999
-9.25049973 8.33110046 -0.98930001
-9.30399990 8.36629963 -0.94459999
-9.24050045 8.31639957 -1.01030004
-9.24330044 8.31589985 -1.03030002
-9.26360035 8.33530045 -0.98379999
-9.28090000 8.36299992 -0.95920002
-9.24979973 8.31400013 -0.99370003
-9.29109955 8.37650013 -0.94010001
-9.30099964 8.37930012 -0.93140000
-9.30630016 8.35840034 -0.94829994
-9.29570007 8.37969971 -0.92820001
-9.29469967 8.36100006 -0.95980000
-9.31729984 8.36050034 -0.93379998
-9.23810005 8.31159973 -1.04779994
-9.29539967 8.36660004 -0.94440001
-9.24860001 8.31519985 -0.99080002
-9.30060005 8.36240005 -0.95440000
-9.31480026 8.36200047 -0.92610002
-9.25580025 8.32699966 -0.99100000
-9.30630016 8.36690044 -0.94160002
-9.27579975 8.35480022 -0.97450000
-9.29829979 8.35509968 -0.96420002
-9.27670002 8.34749985 -0.97149998
-9.29759979 8.37139988 -0.94720000
-9.30319977 8.37160015 -0.94650000
-9.24219990 8.31900024 -1.01730001
-9.28699970 8.34729958 -0.97049999
-9.22640038 8.29650021 -1.05869997
-9.29940033 8.35239983 -0.96609998
-9.23089981 8.30249977 -1.05770004
-9.27919960 8.34440041 -0.97460002
-9.27410030 8.33250046 -0.98250002
-9.27350044 8.34689999 -0.97619998
-9.25259972 8.31949997 -0.98989999
-9.24460030 8.31639957 -1.00960004
-9.27859974 8.34420013 -0.97770005
-9.26630020 8.33860016 -0.97989994
-9.24030018 8.31309986 -1.02869999
-9.30210018 8.36680031 -0.94120002
-9.27950001 8.33510017 -0.98009998
-9.28139973 8.36030006 -0.96730006
-9.26389980 8.34879971 -0.98360002
-9.27120018 8.33450031 -0.97899997
-9.24569988 8.31379986 -1.01849997
-9.25590038 8.33819962 -0.98439997
-9.31050014 8.37479973 -0.92989999
-9.30249977 8.35649967 -0.95300001
-9.27499962 8.35579967 -0.96579999
-9.30580044 8.36870003 -0.94440001
-9.30799961 8.36250019 -0.93500000
-9.28750038 8.36120033 -0.95869994
-9.28789997 8.36530018 -0.95929998
-9.24489975 8.31939983 -0.99119997
-9.27579975 8.35579967 -0.97000003
-9.25459957 8.33129978 -0.98940003
-9.29129982 8.37230015 -0.94349998
-9.28190041 8.35799980 -0.95910001
-9.23499966 8.30990028 -1.05519998
-9.29240036 8.35560036 -0.96630001
-9.29119968 8.35900021 -0.96039999
-9.29769993 8.36600018 -0.95670003
-9.31260014 8.35820007 -0.94010001
-9.30690002 8.37390041 -0.93309999
-9.24170017 8.31499958 -1.02440000
-9.24769974 8.31029987 -1.01950002
-9.27079964 8.35009956 -0.97509998
-9.30020046 8.37580013 -0.93820000
-9.24339962 8.31970024 -1.00999999
-9.25430012 8.31620026 -0.99559999
-9.25479984 8.32810020 -0.98570001
-9.28409958 8.35560036 -0.97020000
-9.30739975 8.36120033 -0.92909998
-9.28699970 8.38010025 -0.93529999
-9.27169991 8.35039997 -0.96840000
-9.30389977 8.37199974 -0.93480003
-9.28730011 8.35039997 -0.96829998
-9.27449989 8.34169960 -0.97640002
-9.28689957 8.35449982 -0.96899998
-9.29520035 8.34920025 -0.96789998
-9.26760006 8.33559990 -0.98180002
-9.30659962 8.36540031 -0.93460000
-9.24870014 8.31210041 -1.01189995
-9.31270027 8.36040020 -0.93069994
-9.25030041 8.31250000 -1.01489997
-9.25010014 8.32619953 -0.99290001
-9.24650002 8.31289959 -1.01479995
-9.29850006 8.36060047 -0.95310003
-9.29240036 8.35859966 -0.96359998
-9.27110004 8.34720039 -0.97240001
-9.24059963 8.31589985 -1.04310000
-9.25399971 8.32470036 -0.98559999
-9.26140022 8.32069969 -0.99119997
-9.27869987 8.36149979 -0.96560001
-9.25249958 8.31239986 -1.00510001
-9.30010033 8.37720013 -0.92869997
-9.30360031 8.35579967 -0.95980000
-9.26509953 8.34710026 -0.97250003
-9.29069996 8.36900043 -0.95850003
-9.27180004 8.35890007 -0.97049999
-9.24699974 8.31739998 -0.99570000
-9.26350021 8.33100033 -0.98740000
-9.30379963 8.37849998 -0.93199998
-9.28649998 8.37440014 -0.94910002
-9.30869961 8.36279964 -0.94550002
-9.26630020 8.33290005 -0.98500001
-9.27610016 8.34630013 -0.97820002
-9.27989960 8.36820030 -0.95690000
-9.30970001 8.36740017 -0.93339998
-9.24839973 8.32349968 -0.99280000
-9.28989983 8.35579967 -0.96289998
-9.29230022 8.38420010 -0.92970002
-9.25699997 8.31610012 -0.98979998
-9.27830029 8.35859966 -0.96439999
-9.25209999 8.32929993 -0.98729998
-9.27250004 8.35630035 -0.96810001
-9.30280018 8.35529995 -0.95630002
-9.29380035 8.35400009 -0.96980000
-9.28960037 8.37409973 -0.94929999
-9.30280018 8.35519981 -0.96310002
-9.24030018 8.30749989 -1.04600000
-9.24969959 8.31459999 -1.02370000
-9.26669979 8.35070038 -0.97289997
-9.26060009 8.33580017 -0.98680001
-9.27019978 8.32549953 -0.98470002
-9.28250027 8.33810043 -0.97899997
-9.26500034 8.32159996 -0.98250002
-9.31490040 8.36270046 -0.93229997
-9.27820015 8.36830044 -0.96219999
-9.23869991 8.31009960 -1.04279995
-9.28719997 8.36890030 -0.95330006
-9.31359959 8.35779953 -0.94459999
-9.27890015 8.33300018 -0.97229999
-9.25160027 8.32209969 -0.98740000
-9.25930023 8.33749962 -0.98420000
-9.24810028 8.31400013 -1.02690005
-9.29049969 8.36260033 -0.95550001
-9.31009960 8.36289978 -0.93059999
-9.28170013 8.35620022 -0.96829998
-9.26799965 8.32830048 -0.98110002
-9.29520035 8.38409996 -0.93199998
-9.23779964 8.30599976 -1.05239999
-9.27040005 8.34630013 -0.97629994
-9.27499962 8.33310032 -0.97890002
-9.30910015 8.36340046 -0.93800002
-9.24020004 8.31410027 -1.01970005
-9.25790024 8.33310032 -0.98710001
-9.28170013 8.34280014 -0.97570002
-9.26229954 8.34290028 -0.98060000
-9.27149963 8.32909966 -0.97989994
-9.30080032 8.37310028 -0.93370003
-9.29189968 8.38020039 -0.93970001
-9.29720020 8.38010025 -0.93199998
-9.26220036 8.32699966 -0.98680001
-9.28689957 8.34619999 -0.97329998
-9.28139973 8.34519958 -0.98070002
-9.25370026 8.33199978 -0.98650002
-9.29759979 8.36530018 -0.96060002
-9.29069996 8.35249996 -0.96789998
-9.29640007 8.37119961 -0.94150001
-9.30340004 8.37650013 -0.92919999
-9.29349995 8.36200047 -0.95690000
-9.29800034 8.37240028 -0.93779999
-9.28419971 8.37629986 -0.94150001
-9.29360008 8.36260033 -0.96310002
-9.25209999 8.31190014 -1.00160003
-9.28899956 8.37180042 -0.94700003
-9.24160004 8.31639957 -1.00660002
-9.24009991 8.30910015 -1.04949999
-9.31250000 8.36639977 -0.93190002
-9.27110004 8.33909988 -0.98049998
-9.23050022 8.30020046 -1.05569994
-9.24160004 8.31999969 -1.01419997
-9.25599957 8.32489967 -0.98830003
-9.24559975 8.32269955 -0.99199998
-9.26980019 8.33839989 -0.97780001
-9.30939960 8.36079979 -0.94779998
-9.29570007 8.35229969 -0.96679997
-9.27880001 8.33370018 -0.97740000
-9.26430035 8.34599972 -0.98140001
-9.28429985 8.35919952 -0.96359998
-9.24279976 8.31989956 -0.99620003
-9.29500008 8.36789989 -0.95539999
-9.29839993 8.38519955 -0.92830002
-9.28160000 8.34799957 -0.97369999
-9.23919964 8.31599998 -1.02600002
-9.29990005 8.35820007 -0.95539999
-9.28989983 8.37749958 -0.93470001
-9.29279995 8.37679958 -0.93749994
-9.24170017 8.31320000 -1.00860000
-9.28530025 8.35960007 -0.95999998
-9.24639988 8.31599998 -1.00399995
-9.25329971 8.31480026 -0.99820000
-9.27859974 8.35550022 -0.97180003
-9.24899960 8.31999969 -0.99159998
-9.23299980 8.30210018 -1.05320001
-9.26229954 8.32530022 -0.98430002
-9.27470016 8.36030006 -0.97399998
-9.27219963 8.34469986 -0.97409999
-9.28040028 8.36890030 -0.95319998
-9.29699993 8.36299992 -0.95660001
-9.29880047 8.36340046 -0.94700003
-9.29720020 8.35219955 -0.96990001
-9.24479961 8.31299973 -1.00339997
-9.31040001 8.35639954 -0.93620002
-9.26189995 8.33279991 -0.98479998
-9.29950047 8.37030029 -0.94019997
-9.24890041 8.31980038 -0.99570000
-9.29559994 8.37959957 -0.93500000
-9.30169964 8.35849953 -0.95869994
-9.28419971 8.36880016 -0.95249999
-9.28429985 8.34519958 -0.97210002
-9.24650002 8.31369972 -1.03960001
-9.31919956 8.36240005 -0.93129998
-9.31050014 8.35760021 -0.94779998
-9.30360031 8.37320042 -0.94109994
-9.25720024 8.32139969 -0.98809999
-9.30150032 8.38319969 -0.92890000
-9.26599979 8.34290028 -0.98210001
-9.29329967 8.37399960 -0.94010001
-9.26659966 8.34860039 -0.97729999
-9.24450016 8.31690025 -1.01880002
-9.30440044 8.35309982 -0.95380002
-9.29979992 8.37370014 -0.94080001
-9.24839973 8.31859970 -1.00209999
-9.27849960 8.33899975 -0.98009998
-9.29459953 8.36839962 -0.94199997
-9.29150009 8.36390018 -0.95249999
-9.29039955 8.36859989 -0.94760001
-9.23810005 8.31350040 -1.04279995
-9.26790047 8.34729958 -0.97420001
-9.25259972 8.33469963 -0.98580003
-9.23750019 8.31449986 -1.04579997
-9.26560020 8.32429981 -0.98589998
-9.24110031 8.31420040 -1.03709996
-9.28240013 8.37300014 -0.94599998
-9.26770020 8.34510040 -0.97930002
-9.27149963 8.34430027 -0.97869998
-9.26519966 8.34630013 -0.97549999
-9.25619984 8.32250023 -0.98530000
-9.24740028 8.32559967 -0.99010003
-9.29409981 8.37899971 -0.93190002
-9.30819988 8.37220001 -0.92930001
-9.29520035 8.37549973 -0.93269998
-9.28610039 8.36789989 -0.95609999
-9.31219959 8.36629963 -0.92839998
-9.25679970 8.31659985 -0.99299997
-9.24580002 8.31949997 -1.03880000
-9.29780006 8.36870003 -0.94300002
-9.29119968 8.38220024 -0.93629998
-9.30000019 8.36600018 -0.94840002
-9.31309986 8.36960030 -0.92629999
-9.24880028 8.31869984 -1.00790000
-9.29380035 8.36940002 -0.95050001
-9.24899960 8.31420040 -1.02010000
-9.29279995 8.37080002 -0.94590002
-9.30659962 8.36219978 -0.95450002
-9.29080009 8.38010025 -0.93300003
-9.27659988 8.34230042 -0.97329998
-9.27499962 8.33489990 -0.97600001
-9.30249977 8.35309982 -0.95840001
-9.30799961 8.37689972 -0.93040001
-9.26210022 8.31970024 -0.98460001
-9.25319958 8.31970024 -0.99360001
-9.25520039 8.31970024 -0.98589998
-9.29720020 8.37189960 -0.93379998
-9.30270004 8.37399960 -0.93779999
-9.28960037 8.35099983 -0.97039998
-9.28590012 8.35109997 -0.97109997
-9.25199986 8.31130028 -0.99570000
-9.28419971 8.37180042 -0.95099998
-9.27530003 8.34519958 -0.97430003
-9.29640007 8.36030006 -0.96219999
-9.26000023 8.33020020 -0.98720002
-9.30799961 8.37110043 -0.93500000
-9.24289989 8.31089973 -1.02600002
-9.25459957 8.32649994 -0.98170000
-9.23519993 8.31009960 -1.04700005
-9.24720001 8.30879974 -1.00549996
-9.26790047 8.33339977 -0.97740000
-9.28699970 8.37759972 -0.94120002
-9.24720001 8.31420040 -1.00680006
-9.30560017 8.37520027 -0.93820000
-9.28750038 8.37279987 -0.95370001
-9.26830006 8.34150028 -0.97930002
-9.28139973 8.34140015 -0.97180003
-9.24440002 8.31869984 -1.00300002
-9.26189995 8.32849979 -0.98369998
-9.30669975 8.36219978 -0.94989997
-9.25969982 8.31849957 -0.98839998
-9.25520039 8.33259964 -0.98229998
-9.26189995 8.34430027 -0.97520000
-9.28260040 8.36970043 -0.95529997
-9.24320030 8.31040001 -1.04369998
-9.26140022 8.32400036 -0.98070002
-9.30249977 8.35999966 -0.96280003
-9.29189968 8.38029957 -0.93010002
-9.28499985 8.34990025 -0.97490001
-9.28740025 8.35210037 -0.97399998
-9.30889988 8.36019993 -0.93709999
-9.29740047 8.37460041 -0.93570006
-9.26949978 8.33310032 -0.98290002
-9.28180027 8.37310028 -0.94279999
-9.22049999 8.29240036 -1.06149995
-9.31299973 8.35610008 -0.93460000
-9.24820042 8.31359959 -1.03250003
-9.25100040 8.31180000 -0.99849999
-9.29100037 8.37349987 -0.93690002
-9.23830032 8.31389999 -1.01010001
-9.24289989 8.31659985 -1.01409996
-9.30970001 8.36890030 -0.92750001
-9.29609966 8.35700035 -0.96170002
-9.28880024 8.38000011 -0.92750001
-9.31050014 8.36940002 -0.93099999
-9.29310036 8.36680031 -0.94859999
-9.22229958 8.29419994 -1.06610000
-9.30389977 8.36460018 -0.95039999
-9.28649998 8.36940002 -0.95029998
-9.28059959 8.36359978 -0.96370006
-9.31180000 8.35970020 -0.93629998
-9.25829983 8.33220005 -0.98420000
-9.27410030 8.36289978 -0.96880001
-9.29539967 8.38269997 -0.92670000
-9.29459953 8.35319996 -0.96390003
-9.24870014 8.31429958 -1.00109994
-9.30440044 8.36489964 -0.94029999
-9.28509998 8.37310028 -0.94410002
-9.26509953 8.32699966 -0.98460001
-9.24289989 8.31169987 -1.03559995
-9.25059986 8.31680012 -0.99299997
-9.28719997 8.36639977 -0.95029998
-9.28450012 8.34679985 -0.97549999
-9.25940037 8.32520008 -0.98559999
-9.24380016 8.31159973 -1.01460004
-9.24639988 8.32509995 -0.99460000
-9.29080009 8.36200047 -0.95869994
-9.31729984 8.35919952 -0.92530000
-9.28769970 8.36800003 -0.96229994
-9.25800037 8.33959961 -0.98610002
-9.24580002 8.31859970 -1.01259995
-9.29899979 8.38049984 -0.92699999
-9.30140018 8.36250019 -0.95130002
-9.29559994 8.35789967 -0.96490002
-9.29920006 8.36890030 -0.94610006
-9.26410007 8.34720039 -0.97850001
-9.23439980 8.30350018 -1.05639994
-9.29080009 8.36499977 -0.95730001
-9.28709984 8.36489964 -0.95289999
-9.29660034 8.35929966 -0.95719999
-9.29100037 8.35519981 -0.97060001
-9.26319981 8.32250023 -0.98559999
-9.23079967 8.29959965 -1.06309998
-9.24190044 8.31680012 -1.00349998
-9.27140045 8.32569981 -0.97810000
-9.30910015 8.35859966 -0.95200002
-9.28789997 8.37629986 -0.93210006
-9.29539967 8.36299992 -0.95389998
-9.07339954 8.27340031 -0.93970001
-9.04780006 8.19559956 -0.79850000
-9.24680042 8.39019966 -0.95639998
-9.21500015 8.33310032 -1.02859998
-9.06939983 8.19309998 -0.83480000
-9.21850014 8.31429958 -1.05309999
-9.26420021 8.37969971 -0.95630002
-9.04440022 8.20940018 -0.81099999
-9.05669975 8.27530003 -0.96399999
-9.26049995 8.37150002 -0.95950001
-9.05280018 8.23690033 -0.87669998
-9.23550034 8.33010006 -1.00999999
-9.07409954 8.28219986 -0.93779999
-9.05879974 8.27869987 -0.93180001
-9.24559975 8.33930016 -0.99100000
-9.21800041 8.33250046 -1.02769995
-9.07170010 8.18729973 -0.83050001
-9.01630020 8.19849968 -0.76130003
-9.05669975 8.20940018 -0.86400002
-9.06840038 8.26309967 -0.97770005
-9.07190037 8.17560005 -0.79119998
-9.05970001 8.29199982 -0.93269998
-9.06060028 8.20899963 -0.86189997
-9.06859970 8.28890038 -0.82419997
-9.05850029 8.19909954 -0.78420001
-9.07079983 8.18080044 -0.78759998
-9.10249996 8.22560024 -0.93000001
-9.22449970 8.32489967 -1.02569997
-9.03320026 8.20800018 -0.80760002
-9.06070042 8.28660011 -0.91790003
-9.27050018 8.36380005 -0.96060002
-9.06919956 8.29699993 -0.87159997
-9.06359959 8.26739979 -0.97000003
-9.03699970 8.20619965 -0.79449999
-9.06120014 8.26469994 -0.90189999
-9.03339958 8.21730042 -0.82480001
-9.04440022 8.18900013 -0.74199998
-9.05080032 8.22879982 -0.86330003
-9.24520016 8.35789967 -0.98559999
-9.22579956 8.31219959 -1.04670000
-9.10210037 8.20139980 -0.87709999
-9.26939964 8.35799980 -0.96600002
-9.06890011 8.27910042 -0.93030000
-9.06480026 8.24960041 -0.93480003
-9.03470039 8.19099998 -0.75300002
-9.23330021 8.32100010 -1.01810002
-9.22649956 8.33479977 -1.00969994
-9.07900047 8.17590046 -0.76120001
-9.04819965 8.22439957 -0.84969997
-9.26760006 8.39910030 -0.93629998
-9.05679989 8.28059959 -0.86390001
-9.20820045 8.32520008 -1.05149996
-9.25949955 8.36340046 -0.96619999
-9.25059986 8.38770008 -0.95480001
-9.10879993 8.22229958 -0.90450001
-9.01140022 8.17829990 -0.73280001
-9.08030033 8.20349979 -0.85710001
-9.25800037 8.36340046 -0.97320002
