-4.802762603759765625e+01 -7.416757202148437500e+02 3.203253173828125000e+01
-4.756656646728515625e+01 -7.435982666015625000e+02 5.309123229980468750e+01
-1.133594226837158203e+01 -7.901952514648437500e+02 1.683584442138671875e+02
-1.386326789855957031e+01 -7.784688720703125000e+02 1.619608612060546875e+02
4.966661453247070312e+00 -7.932587890625000000e+02 1.705858154296875000e+02
-4.445772933959960938e+01 -7.437849121093750000e+02 5.772461700439453125e+01
-4.478679656982421875e+01 -7.450126342773437500e+02 5.571239471435546875e+01
-4.914403915405273438e+00 -7.913778686523437500e+02 1.703439636230468750e+02
-4.753815460205078125e+01 -7.398184814453125000e+02 5.719290924072265625e+01
-4.304076385498046875e+01 -7.438063964843750000e+02 5.266415405273437500e+01
-3.591275787353515625e+01 -7.554032592773437500e+02 1.087422561645507812e+02
-6.020042419433593750e+01 -7.430473632812500000e+02 7.105567932128906250e+01
-4.026556777954101562e+01 -7.485103149414062500e+02 1.655705566406250000e+02
-3.539682769775390625e+01 -7.576663818359375000e+02 1.136358947753906250e+02
-2.247170066833496094e+01 -7.658493652343750000e+02 1.416044311523437500e+02
-3.434454727172851562e+01 -7.556417236328125000e+02 1.484273376464843750e+02
-3.408596420288085938e+01 -7.555513305664062500e+02 1.090374832153320312e+02
-4.315927886962890625e+01 -7.372042846679687500e+02 2.217015075683593750e+01
-3.759526062011718750e+01 -7.487544555664062500e+02 1.418497924804687500e+02
-2.551201820373535156e+01 -7.683148803710937500e+02 1.392810058593750000e+02
-1.333352947235107422e+01 -7.688688354492187500e+02 1.515932006835937500e+02
-4.102217864990234375e+01 -7.496542358398437500e+02 1.123068771362304688e+02
-5.793360900878906250e+01 -7.397687988281250000e+02 7.499485015869140625e+01
-3.131822204589843750e+01 -7.487397460937500000e+02 1.751965942382812500e+02
-4.117457199096679688e+01 -7.483436889648437500e+02 1.161606292724609375e+02
-6.691960144042968750e+01 -7.422907104492187500e+02 6.983050537109375000e+01
-3.696740722656250000e+01 -7.542736816406250000e+02 1.067520599365234375e+02
1.786554908752441406e+01 -8.126195678710937500e+02 1.703280944824218750e+02
-2.592798614501953125e+01 -7.659857177734375000e+02 1.345530090332031250e+02
-6.529284667968750000e+01 -7.394192504882812500e+02 7.315194702148437500e+01
-3.218673706054687500e+01 -7.474373168945312500e+02 2.098351898193359375e+02
-3.280086898803710938e+01 -7.339530029296875000e+02 2.338441467285156250e+02
-5.311013793945312500e+01 -7.461764526367187500e+02 5.848693084716796875e+01
-3.831821823120117188e+01 -7.496337890625000000e+02 9.261924743652343750e+01
-5.401624298095703125e+01 -7.459396362304687500e+02 5.680042266845703125e+01
-5.756874084472656250e+01 -7.391528930664062500e+02 6.852551269531250000e+01
1.537084007263183594e+01 -8.036576538085937500e+02 1.740665283203125000e+02
-4.310385894775390625e+01 -7.475050659179687500e+02 7.128698730468750000e+01
2.563802719116210938e+00 -7.899938354492187500e+02 1.686627502441406250e+02
-1.625627517700195312e+00 -7.886049194335937500e+02 1.677146911621093750e+02
-3.866155242919921875e+01 -7.448264770507812500e+02 5.050539398193359375e+01
-3.811922454833984375e+01 -7.482390136718750000e+02 1.595104980468750000e+02
-2.753619766235351562e+01 -7.630456542968750000e+02 1.351991577148437500e+02
-4.404010391235351562e+01 -7.529792480468750000e+02 1.861468200683593750e+02
-4.183422088623046875e+01 -7.407814331054687500e+02 2.066138916015625000e+02
-3.947740554809570312e+00 -7.880018920898437500e+02 1.685773162841796875e+02
-6.411840057373046875e+01 -7.380999145507812500e+02 7.595188903808593750e+01
-3.162258148193359375e+01 -7.508208007812500000e+02 1.973211517333984375e+02
-4.812945556640625000e+01 -7.423831176757812500e+02 5.407776641845703125e+01
-3.436643218994140625e+01 -7.522482299804687500e+02 1.378367004394531250e+02
-1.021713256835937500e+00 -7.895569458007812500e+02 1.680358276367187500e+02
-4.475962829589843750e+01 -7.428233642578125000e+02 5.670745849609375000e+01
-3.433429718017578125e+01 -7.465373535156250000e+02 1.822552032470703125e+02
-6.067031097412109375e+01 -7.454618530273437500e+02 6.549324798583984375e+01
-1.625064086914062500e+01 -7.744331054687500000e+02 1.507973937988281250e+02
1.987681770324707031e+01 -8.135212402343750000e+02 1.746748352050781250e+02
-3.852334594726562500e+01 -7.514071044921875000e+02 1.473566284179687500e+02
-4.248707962036132812e+01 -7.420356445312500000e+02 3.240565490722656250e+01
-3.153165054321289062e+01 -7.601367797851562500e+02 1.217414093017578125e+02
-3.170504760742187500e+01 -7.583148803710937500e+02 1.232371902465820312e+02
-5.091363525390625000e+01 -7.454445190429687500e+02 5.716542816162109375e+01
-4.035627746582031250e+01 -7.512733764648437500e+02 9.777210998535156250e+01
-4.254202651977539062e+01 -7.532163085937500000e+02 1.510452575683593750e+02
-3.771075820922851562e+01 -7.537565917968750000e+02 1.339968872070312500e+02
1.707711982727050781e+01 -8.050728149414062500e+02 1.737261047363281250e+02
-3.297648620605468750e+01 -7.414749145507812500e+02 2.130640716552734375e+02
5.121309280395507812e+00 -8.045427246093750000e+02 1.739570312500000000e+02
-3.036565208435058594e+01 -7.283643798828125000e+02 2.453506622314453125e+02
-3.878453826904296875e+01 -7.482473754882812500e+02 1.148717041015625000e+02
-4.459157943725585938e+00 -7.798970336914062500e+02 1.652771148681640625e+02
-4.504909515380859375e+01 -7.392200317382812500e+02 9.916465759277343750e+00
-4.896028900146484375e+01 -7.467263183593750000e+02 5.157765960693359375e+01
-2.997125053405761719e+01 -7.489547119140625000e+02 1.775954284667968750e+02
-2.074546813964843750e+00 -7.870051879882812500e+02 1.681360015869140625e+02
-4.132048797607421875e+01 -7.555459594726562500e+02 1.706112823486328125e+02
9.971775054931640625e+00 -8.113287353515625000e+02 1.730965576171875000e+02
-5.486001586914062500e+01 -7.418900146484375000e+02 6.038272094726562500e+01
-3.154368209838867188e+01 -7.485048828125000000e+02 2.015523376464843750e+02
4.819858551025390625e+00 -8.042075805664062500e+02 1.719201354980468750e+02
-3.713111495971679688e+01 -7.488692016601562500e+02 1.697522583007812500e+02
-3.350422668457031250e+01 -7.430793457031250000e+02 2.102679748535156250e+02
-1.176870250701904297e+01 -7.745473632812500000e+02 1.549772186279296875e+02
-4.130291748046875000e+01 -7.498717651367187500e+02 1.068106689453125000e+02
-2.105779457092285156e+01 -7.690266723632812500e+02 1.410281677246093750e+02
-4.102977752685546875e+01 -7.497763671875000000e+02 1.326249694824218750e+02
-3.487178039550781250e+01 -7.460292968750000000e+02 1.893447875976562500e+02
-1.050164794921875000e+01 -7.849235839843750000e+02 1.626354522705078125e+02
-3.870598602294921875e+01 -7.493048095703125000e+02 1.486325988769531250e+02
-3.128333663940429688e+01 -7.454775390625000000e+02 2.169851379394531250e+02
-3.913390350341796875e+01 -7.472007446289062500e+02 1.084860992431640625e+02
-6.701789093017578125e+01 -7.432777099609375000e+02 6.715052795410156250e+01
-1.387497329711914062e+01 -7.713322753906250000e+02 1.516451263427734375e+02
-1.922751808166503906e+01 -7.682210693359375000e+02 1.431602172851562500e+02
-3.880963134765625000e+01 -7.473460083007812500e+02 1.672319641113281250e+02
-3.059472274780273438e+01 -7.465716552734375000e+02 1.807356109619140625e+02
-4.930027770996093750e+01 -7.408806152343750000e+02 2.305496215820312500e+01
-2.307888412475585938e+01 -7.635828247070312500e+02 1.378759155273437500e+02
-4.061148071289062500e+01 -7.534992065429687500e+02 1.562372436523437500e+02
-4.002904129028320312e+01 -7.493349609375000000e+02 1.176432266235351562e+02
-2.160209846496582031e+01 -7.726658325195312500e+02 1.515700683593750000e+02
-2.290826606750488281e+01 -7.612019042968750000e+02 1.352396240234375000e+02
-8.237079620361328125e+00 -7.849564819335937500e+02 1.670978240966796875e+02
-3.058617782592773438e+01 -7.502433471679687500e+02 1.736006317138671875e+02
-3.688122558593750000e+01 -7.517965698242187500e+02 1.487342834472656250e+02
-3.704509735107421875e+01 -7.461962280273437500e+02 2.019776916503906250e+02
-3.473769760131835938e+01 -7.505856323242187500e+02 1.797400817871093750e+02
2.267036628723144531e+01 -8.162228393554687500e+02 1.698736877441406250e+02
-6.041244506835937500e+01 -7.442313232421875000e+02 6.469831085205078125e+01
-4.864761352539062500e+00 -7.771922607421875000e+02 1.626234741210937500e+02
-4.079251861572265625e+01 -7.528606567382812500e+02 1.453847808837890625e+02
1.392578125000000000e+00 -7.886159057617187500e+02 1.685442657470703125e+02
-3.566352081298828125e+01 -7.331596069335937500e+02 2.325805969238281250e+02
-3.633342742919921875e+01 -7.491901855468750000e+02 2.015518493652343750e+02
-4.277880096435546875e+01 -7.469601440429687500e+02 7.812734985351562500e+01
-3.911469650268554688e+01 -7.464880981445312500e+02 9.644949340820312500e+01
-3.792697906494140625e+01 -7.488774414062500000e+02 9.459630584716796875e+01
-3.615544891357421875e+01 -7.306445312500000000e+02 2.340521545410156250e+02
-4.102672958374023438e+01 -7.425900878906250000e+02 3.956588745117187500e+01
-3.274233627319335938e+01 -7.481584472656250000e+02 1.973996734619140625e+02
-3.552273941040039062e+01 -7.383239746093750000e+02 2.269356536865234375e+02
-3.619591522216796875e+01 -7.488948974609375000e+02 1.632835083007812500e+02
-4.178581237792968750e+01 -7.539302978515625000e+02 1.448928527832031250e+02
-3.975336074829101562e+01 -7.472532348632812500e+02 1.019916992187500000e+02
-4.263259887695312500e+01 -7.402134399414062500e+02 4.775492095947265625e+01
-3.775049972534179688e+01 -7.541573486328125000e+02 1.354401855468750000e+02
-4.865802764892578125e+01 -7.472963867187500000e+02 4.940023803710937500e+01
-4.000555801391601562e+01 -7.495492553710937500e+02 1.309916076660156250e+02
-1.942947578430175781e+01 -7.727073364257812500e+02 1.477714538574218750e+02
-3.651088714599609375e+01 -7.504987792968750000e+02 1.078913497924804688e+02
-3.817404556274414062e+01 -7.498533325195312500e+02 1.168315048217773438e+02
-3.990190124511718750e+01 -7.447708740234375000e+02 1.931505432128906250e+02
-4.208908843994140625e+01 -7.475631713867187500e+02 9.902145385742187500e+01
-3.845291900634765625e+01 -7.463739624023437500e+02 1.357833557128906250e+02
-3.391335678100585938e+01 -7.516713867187500000e+02 1.595316162109375000e+02
-4.190519332885742188e+01 -7.525656127929687500e+02 1.774815826416015625e+02
-2.714454841613769531e+01 -7.718152465820312500e+02 1.464337005615234375e+02
-4.158672714233398438e+01 -7.504317626953125000e+02 1.601884765625000000e+02
-4.810344696044921875e+00 -7.819668579101562500e+02 1.623141174316406250e+02
-3.862422180175781250e+01 -7.460913085937500000e+02 1.703157196044921875e+02
-4.755774307250976562e+01 -7.432688598632812500e+02 5.007395935058593750e+01
-4.203725051879882812e+01 -7.499238891601562500e+02 1.636866607666015625e+02
-1.543247222900390625e+00 -7.820718994140625000e+02 1.650181274414062500e+02
-4.029138946533203125e+01 -7.445422973632812500e+02 1.998069000244140625e+02
-4.102753448486328125e+01 -7.512854614257812500e+02 1.224270172119140625e+02
-3.363758850097656250e+01 -7.476493530273437500e+02 1.890986785888671875e+02
-4.320360565185546875e+01 -7.427055664062500000e+02 3.395765686035156250e+01
-2.953664779663085938e+01 -7.606135864257812500e+02 1.273996887207031250e+02
-3.864905548095703125e+01 -7.409169311523437500e+02 2.169953918457031250e+02
-2.348194503784179688e+01 -7.703865966796875000e+02 1.406829528808593750e+02
1.846915626525878906e+01 -8.135939941406250000e+02 1.686316680908203125e+02
-6.668475151062011719e+00 -7.817454223632812500e+02 1.604920196533203125e+02
-4.341864776611328125e+01 -7.489385375976562500e+02 1.851653747558593750e+02
-3.586929321289062500e+01 -7.480928955078125000e+02 2.051739807128906250e+02
-3.214908981323242188e+01 -7.461455078125000000e+02 2.048034362792968750e+02
-4.327169036865234375e+01 -7.481118774414062500e+02 7.149548339843750000e+01
-3.848783874511718750e+01 -7.492028808593750000e+02 9.181106567382812500e+01
-5.715579223632812500e+01 -7.418530883789062500e+02 6.736347198486328125e+01
2.081775474548339844e+01 -8.111563720703125000e+02 1.735478820800781250e+02
-4.560774612426757812e+01 -7.451043090820312500e+02 5.264369964599609375e+01
-6.649571990966796875e+01 -7.364604492187500000e+02 7.616146850585937500e+01
-3.718682861328125000e+01 -7.454371337890625000e+02 1.930142822265625000e+02
-3.378471374511718750e+01 -7.520338745117187500e+02 1.408526306152343750e+02
-4.237784576416015625e+01 -7.549672241210937500e+02 1.751067352294921875e+02
-4.033600234985351562e+01 -7.478563232421875000e+02 8.722396850585937500e+01
-2.906754493713378906e+01 -7.581141967773437500e+02 1.307990264892578125e+02
-2.826803016662597656e+01 -7.687964477539062500e+02 1.349970397949218750e+02
-3.747772216796875000e+01 -7.345797119140625000e+02 2.287305297851562500e+02
-3.983099365234375000e+01 -7.506184082031250000e+02 6.382295989990234375e+01
-3.183484458923339844e+01 -7.483812255859375000e+02 1.927951049804687500e+02
-1.299256515502929688e+01 -7.703415527343750000e+02 1.512338409423828125e+02
-3.609920501708984375e+01 -7.525130615234375000e+02 1.359132080078125000e+02
-3.525199890136718750e+01 -7.531619262695312500e+02 1.370728607177734375e+02
-4.367056274414062500e+01 -7.440057983398437500e+02 5.767387390136718750e+01
-3.229263687133789062e+01 -7.439784545898437500e+02 2.045969543457031250e+02
-4.120952606201171875e+01 -7.445399169921875000e+02 7.993667602539062500e+01
-8.689735412597656250e+00 -7.792287597656250000e+02 1.588509521484375000e+02
-4.069641113281250000e+01 -7.409066162109375000e+02 2.132390899658203125e+02
-3.598326492309570312e+01 -7.472003784179687500e+02 1.873372497558593750e+02
-3.978248596191406250e+01 -7.461240234375000000e+02 7.799484252929687500e+01
-2.084173965454101562e+01 -7.675203247070312500e+02 1.431040039062500000e+02
-6.111561584472656250e+01 -7.386322631835937500e+02 7.681034851074218750e+01
-3.398974227905273438e+01 -7.338003540039062500e+02 2.344512329101562500e+02
-4.965886306762695312e+01 -7.364265136718750000e+02 6.059555053710937500e+01
-3.986337280273437500e+01 -7.566169433593750000e+02 1.693013916015625000e+02
-2.098403167724609375e+01 -7.685765380859375000e+02 1.447434692382812500e+02
-1.859111404418945312e+01 -7.725074462890625000e+02 1.484426727294921875e+02
-3.255158996582031250e+01 -7.523014526367187500e+02 1.699069519042968750e+02
-6.324642944335937500e+01 -7.385150146484375000e+02 7.505612945556640625e+01
1.258100318908691406e+01 -8.118960571289062500e+02 1.714860839843750000e+02
-3.698289489746093750e+01 -7.477684326171875000e+02 1.347771759033203125e+02
-3.482147598266601562e+01 -7.422573242187500000e+02 2.158875885009765625e+02
-3.474011993408203125e+01 -7.419046020507812500e+02 2.250546417236328125e+02
-3.691688537597656250e+01 -7.533968505859375000e+02 1.340820312500000000e+02
1.121513938903808594e+01 -7.996905517578125000e+02 1.744765014648437500e+02
-5.978352355957031250e+01 -7.442394409179687500e+02 6.640718841552734375e+01
-3.585860061645507812e+01 -7.506306762695312500e+02 1.386040039062500000e+02
-6.374511718750000000e-01 -7.907974243164062500e+02 1.684995880126953125e+02
-3.510259246826171875e+01 -7.494482421875000000e+02 1.816920318603515625e+02
-2.785854339599609375e+01 -7.208548583984375000e+02 2.525925903320312500e+02
-2.474218177795410156e+01 -7.707472534179687500e+02 1.413414001464843750e+02
-4.437623596191406250e+01 -7.414573364257812500e+02 1.692655944824218750e+01
1.755263328552246094e+01 -8.147271728515625000e+02 1.718381500244140625e+02
-5.175203323364257812e+00 -7.946441650390625000e+02 1.701696472167968750e+02
-6.326848602294921875e+01 -7.412245483398437500e+02 7.094726562500000000e+01
-5.391442871093750000e+01 -7.461555175781250000e+02 5.785851287841796875e+01
-1.711594772338867188e+01 -7.687639160156250000e+02 1.489482879638671875e+02
-3.508201217651367188e+01 -7.412816162109375000e+02 2.204600219726562500e+02
-3.662346649169921875e+01 -7.453659057617187500e+02 1.979770507812500000e+02
-4.617845916748046875e+01 -7.445950317382812500e+02 4.782862091064453125e+01
-1.285392856597900391e+01 -7.705288085937500000e+02 1.518312377929687500e+02
-3.488077926635742188e+01 -7.485408325195312500e+02 1.634579620361328125e+02
-3.480226135253906250e+01 -7.516977539062500000e+02 1.568528442382812500e+02
-4.324610137939453125e+01 -7.523654174804687500e+02 1.707942352294921875e+02
-3.791666412353515625e+01 -7.498963012695312500e+02 1.165232696533203125e+02
-5.652050781250000000e+01 -7.431950073242187500e+02 6.583467102050781250e+01
-8.944341659545898438e+00 -7.806662597656250000e+02 1.607113800048828125e+02
-3.443317413330078125e+01 -7.507734375000000000e+02 1.714672851562500000e+02
-2.974327468872070312e+01 -7.270002441406250000e+02 2.471550903320312500e+02
-8.310257911682128906e+00 -7.914077148437500000e+02 1.713459472656250000e+02
-3.377094650268554688e+01 -7.537326049804687500e+02 1.509467773437500000e+02
-4.471744537353515625e+01 -7.482967529296875000e+02 9.590887451171875000e+01
-4.160003662109375000e+01 -7.449899902343750000e+02 1.902965698242187500e+02
2.353068351745605469e+01 -8.159317016601562500e+02 1.701061706542968750e+02
-4.071467590332031250e+01 -7.421268920898437500e+02 2.040624847412109375e+02
-4.169316101074218750e+01 -7.527716064453125000e+02 9.564611816406250000e+01
-1.584512710571289062e+00 -7.925244140625000000e+02 1.668174133300781250e+02
-4.274179840087890625e+01 -7.526691284179687500e+02 1.433622436523437500e+02
-2.712573051452636719e+01 -7.605245971679687500e+02 1.290917816162109375e+02
-4.210449981689453125e+01 -7.498140869140625000e+02 1.805756378173828125e+02
3.199272155761718750e-01 -7.964609985351562500e+02 1.673126831054687500e+02
-4.413259887695312500e+01 -7.433260498046875000e+02 2.793383026123046875e+01
-3.664183044433593750e+01 -7.516789550781250000e+02 1.029131927490234375e+02
-5.314901351928710938e+00 -7.871262817382812500e+02 1.623754882812500000e+02
-3.887896728515625000e+01 -7.482733764648437500e+02 1.433630676269531250e+02
-2.123221778869628906e+01 -7.723384399414062500e+02 1.483382415771484375e+02
2.308082580566406250e-02 -7.977125244140625000e+02 1.689206542968750000e+02
-4.807893753051757812e+01 -7.393679809570312500e+02 6.072381591796875000e+01
-4.359601593017578125e+01 -7.447399902343750000e+02 3.364152526855468750e+01
-4.456316375732421875e+01 -7.453449707031250000e+02 5.519429779052734375e+01
-3.581250381469726562e+01 -7.512060546875000000e+02 1.658948669433593750e+02
-3.639470672607421875e+01 -7.503486328125000000e+02 1.646494598388671875e+02
-4.241548156738281250e+01 -7.488121337890625000e+02 1.831696929931640625e+02
-4.325748443603515625e+01 -7.464307250976562500e+02 1.984423522949218750e+02
-4.856008148193359375e+01 -7.425129394531250000e+02 5.403248596191406250e+01
-4.653562927246093750e+01 -7.408891601562500000e+02 2.052701568603515625e+01
-4.196727752685546875e+01 -7.471419067382812500e+02 5.900519561767578125e+01
-3.892218780517578125e+01 -7.380455322265625000e+02 2.173471374511718750e+02
9.582313537597656250e+00 -7.992424316406250000e+02 1.721059112548828125e+02
-5.101411437988281250e+01 -7.402193603515625000e+02 6.282669830322265625e+01
-4.198612213134765625e+01 -7.422080688476562500e+02 5.539545440673828125e+01
-3.460798645019531250e+01 -7.493337402343750000e+02 1.478079528808593750e+02
-3.171145057678222656e+01 -7.535654907226562500e+02 1.607964782714843750e+02
1.269430732727050781e+01 -8.108975830078125000e+02 1.698209838867187500e+02
-3.695135879516601562e+01 -7.464805297851562500e+02 1.912677612304687500e+02
-4.254357910156250000e+01 -7.485177612304687500e+02 1.672341308593750000e+02
-4.648706054687500000e+01 -7.423368530273437500e+02 4.170187377929687500e+01
-3.853525543212890625e+01 -7.503504028320312500e+02 1.610141296386718750e+02
-4.587454986572265625e+01 -7.385444946289062500e+02 2.650017547607421875e+01
-5.886124420166015625e+01 -7.445452880859375000e+02 6.182280731201171875e+01
-3.408565139770507812e+01 -7.486685791015625000e+02 1.126830368041992188e+02
-5.996293640136718750e+01 -7.424083862304687500e+02 6.710564422607421875e+01
-3.505068206787109375e+01 -7.453911132812500000e+02 2.073099822998046875e+02
-3.838740921020507812e+01 -7.487014160156250000e+02 1.628418579101562500e+02
-3.353172683715820312e+01 -7.415565185546875000e+02 2.117200622558593750e+02
-3.504306793212890625e+01 -7.480780639648437500e+02 1.052289428710937500e+02
-3.864599227905273438e+00 -7.823419189453125000e+02 1.589812164306640625e+02
-3.347045898437500000e+01 -7.281896972656250000e+02 2.423874511718750000e+02
-4.244961547851562500e+01 -7.492899169921875000e+02 8.417829132080078125e+01
-4.220365142822265625e+01 -7.476853027343750000e+02 4.802523803710937500e+01
-3.559124755859375000e+01 -7.537136840820312500e+02 1.500581054687500000e+02
-1.395554924011230469e+01 -7.829936523437500000e+02 1.617052764892578125e+02
-5.220156860351562500e+01 -7.456017456054687500e+02 5.732443237304687500e+01
-3.999180603027343750e+01 -7.481141357421875000e+02 1.785454406738281250e+02
2.052478218078613281e+01 -8.098918457031250000e+02 1.709046020507812500e+02
-4.032010650634765625e+01 -7.457615966796875000e+02 9.242965698242187500e+01
-5.806330871582031250e+01 -7.443708496093750000e+02 6.606418609619140625e+01
-4.222689819335937500e+01 -7.507218017578125000e+02 8.456298828125000000e+01
-5.915239334106445312e+00 -7.936380004882812500e+02 1.695356292724609375e+02
-9.418953895568847656e+00 -7.830823974609375000e+02 1.615867004394531250e+02
-3.271531295776367188e+01 -7.422790527343750000e+02 2.170253906250000000e+02
-3.497330093383789062e+01 -7.519731445312500000e+02 1.627917022705078125e+02
-3.090240287780761719e+01 -7.562493286132812500e+02 1.248681030273437500e+02
8.878854751586914062e+00 -8.047429199218750000e+02 1.738241729736328125e+02
-4.091017913818359375e+01 -7.506644287109375000e+02 9.814022827148437500e+01
-3.560767745971679688e+01 -7.395215454101562500e+02 2.216250610351562500e+02
5.376663208007812500e+00 -8.048508300781250000e+02 1.717869873046875000e+02
8.409227371215820312e+00 -7.972736206054687500e+02 1.742799682617187500e+02
-3.831375122070312500e+01 -7.463598632812500000e+02 7.678831481933593750e+01
-4.398560333251953125e+01 -7.427240600585937500e+02 2.044583435058593750e+02
-4.605766296386718750e+01 -7.400856933593750000e+02 2.157597045898437500e+02
-4.269212341308593750e+01 -7.433063354492187500e+02 5.776559448242187500e+01
-5.472639465332031250e+01 -7.468713989257812500e+02 5.837370300292968750e+01
5.139673233032226562e+00 -7.960448608398437500e+02 1.699911346435546875e+02
-3.915830230712890625e+01 -7.477800292968750000e+02 6.401875305175781250e+01
-5.942897796630859375e+00 -7.948544921875000000e+02 1.705285797119140625e+02
-4.941127014160156250e+01 -7.399345092773437500e+02 6.042065429687500000e+01
-1.148559379577636719e+01 -7.763247070312500000e+02 1.573718261718750000e+02
-3.165810775756835938e+01 -7.279216918945312500e+02 2.467575988769531250e+02
-4.074998855590820312e+01 -7.494633178710937500e+02 1.548635711669921875e+02
-7.377794265747070312e+00 -7.928922119140625000e+02 1.676342468261718750e+02
-3.480862045288085938e+01 -7.231782226562500000e+02 2.453105468750000000e+02
-3.740015411376953125e+01 -7.496466674804687500e+02 1.457884521484375000e+02
2.182618522644042969e+01 -8.149058837890625000e+02 1.721639404296875000e+02
-4.031344223022460938e+01 -7.458381958007812500e+02 1.747773132324218750e+02
-4.268612670898437500e+01 -7.414085693359375000e+02 3.824382019042968750e+01
-3.337797546386718750e+01 -7.411699829101562500e+02 2.189319152832031250e+02
-4.150575256347656250e+01 -7.454202270507812500e+02 8.558316802978515625e+01
-3.461862945556640625e+01 -7.375256958007812500e+02 2.256264648437500000e+02
-2.468179893493652344e+01 -7.609211425781250000e+02 1.324080810546875000e+02
-4.168234634399414062e+01 -7.538504028320312500e+02 1.538374023437500000e+02
-3.448777008056640625e+01 -7.502307739257812500e+02 1.112992858886718750e+02
-2.967663574218750000e+01 -7.556619873046875000e+02 1.212919311523437500e+02
-5.265810012817382812e+00 -7.797955322265625000e+02 1.638906097412109375e+02
-2.850953102111816406e+01 -7.622011718750000000e+02 1.305890655517578125e+02
-2.588995170593261719e+01 -7.655292968750000000e+02 1.346741943359375000e+02
-9.384765625000000000e-01 -7.894743041992187500e+02 1.683348846435546875e+02
-4.467350769042968750e+01 -7.450452270507812500e+02 1.817291564941406250e+02
-2.903888320922851562e+01 -7.682944335937500000e+02 1.417325134277343750e+02
-4.566329956054687500e+01 -7.424307250976562500e+02 4.306628417968750000e+01
-1.536757278442382812e+01 -7.762930908203125000e+02 1.543369750976562500e+02
-3.274002075195312500e+01 -7.504412231445312500e+02 1.716427307128906250e+02
-3.501765823364257812e+01 -7.377327880859375000e+02 2.263444671630859375e+02
-4.217784500122070312e+01 -7.363967895507812500e+02 2.270571899414062500e+02
-4.297455596923828125e+01 -7.519998168945312500e+02 1.279861221313476562e+02
-2.472112655639648438e+00 -7.942797241210937500e+02 1.691841888427734375e+02
-3.624650573730468750e+01 -7.517238769531250000e+02 1.536356506347656250e+02
9.651741027832031250e+00 -8.006663818359375000e+02 1.734729461669921875e+02
-1.913935089111328125e+01 -7.733710937500000000e+02 1.515890655517578125e+02
-4.071318817138671875e+01 -7.470988159179687500e+02 1.823089599609375000e+02
-6.374282836914062500e+00 -7.817678833007812500e+02 1.632814331054687500e+02
-3.924874114990234375e+01 -7.474757080078125000e+02 1.020977249145507812e+02
6.830615997314453125e+00 -8.038758544921875000e+02 1.735291290283203125e+02
-5.791816711425781250e+00 -7.874769287109375000e+02 1.667077026367187500e+02
-4.290218353271484375e+01 -7.427956542968750000e+02 5.567628479003906250e+01
-4.159466171264648438e+01 -7.425881347656250000e+02 2.656546020507812500e+01
-3.219978332519531250e+01 -7.502490234375000000e+02 1.157184066772460938e+02
-3.641149520874023438e+00 -7.948867797851562500e+02 1.693563537597656250e+02
-4.787998199462890625e+01 -7.424828491210937500e+02 8.196006774902343750e+00
-3.955507278442382812e+01 -7.378474731445312500e+02 2.196837310791015625e+02
-4.278429031372070312e+01 -7.468009033203125000e+02 3.899080657958984375e+01
-9.506762504577636719e+00 -7.779480590820312500e+02 1.549913330078125000e+02
9.899707794189453125e+00 -8.123421020507812500e+02 1.716431579589843750e+02
-4.613574600219726562e+01 -7.442809448242187500e+02 5.177322387695312500e+01
7.257497787475585938e+00 -7.977982177734375000e+02 1.729154663085937500e+02
-4.166373443603515625e+01 -7.465414428710937500e+02 1.876183776855468750e+02
-3.507336425781250000e+01 -7.569187622070312500e+02 1.213205947875976562e+02
-4.358795928955078125e+01 -7.431317749023437500e+02 1.930790405273437500e+02
-4.641071319580078125e+01 -7.421267089843750000e+02 4.116933441162109375e+01
-4.370247650146484375e+01 -7.508975219726562500e+02 1.778029632568359375e+02
-4.340001678466796875e+01 -7.463634033203125000e+02 7.574566650390625000e+01
-4.302098846435546875e+01 -7.398123779296875000e+02 2.190584564208984375e+02
-2.250595474243164062e+01 -7.671598510742187500e+02 1.380710601806640625e+02
-3.133834075927734375e+01 -7.576784057617187500e+02 1.196022338867187500e+02
-3.486247634887695312e+01 -7.487836914062500000e+02 1.678342895507812500e+02
-3.491175842285156250e+01 -7.508978271484375000e+02 1.826308288574218750e+02
-1.751111602783203125e+01 -7.649521484375000000e+02 1.459994201660156250e+02
-3.818109130859375000e+01 -7.478893432617187500e+02 9.332462310791015625e+01
-4.629148101806640625e+01 -7.503772583007812500e+02 1.892542114257812500e+02
2.036743736267089844e+01 -8.167338256835937500e+02 1.707157440185546875e+02
-4.081813049316406250e+01 -7.421104125976562500e+02 2.157455444335937500e+02
-3.715227508544921875e+01 -7.399898681640625000e+02 2.107869873046875000e+02
-3.116110992431640625e+01 -7.570494995117187500e+02 1.154257736206054688e+02
-4.519126510620117188e+01 -7.535855102539062500e+02 1.699143524169921875e+02
-4.377198791503906250e+01 -7.461182250976562500e+02 3.778887176513671875e+01
-3.508647537231445312e+01 -7.484078369140625000e+02 1.656313171386718750e+02
-3.205448532104492188e+01 -7.384569702148437500e+02 2.294521942138671875e+02
-4.282753753662109375e+01 -7.428905639648437500e+02 8.008668518066406250e+01
-6.695484924316406250e+01 -7.378050537109375000e+02 7.685726928710937500e+01
-4.322819519042968750e+01 -7.424973144531250000e+02 3.432277679443359375e+01
-4.092294311523437500e+01 -7.545500488281250000e+02 1.382900238037109375e+02
-7.271451950073242188e+00 -7.898798828125000000e+02 1.696826324462890625e+02
-2.754936218261718750e+01 -7.618382568359375000e+02 1.335725708007812500e+02
-1.660845947265625000e+01 -7.669816894531250000e+02 1.477423400878906250e+02
-4.200364685058593750e+01 -7.467491455078125000e+02 9.992935180664062500e+01
-3.876742553710937500e+01 -7.500607299804687500e+02 1.371352233886718750e+02
-4.476110458374023438e+01 -7.459629516601562500e+02 7.671025085449218750e+01
-3.594995117187500000e+01 -7.636102294921875000e+02 1.307302856445312500e+02
1.785582160949707031e+01 -8.059031372070312500e+02 1.735080261230468750e+02
-3.976590728759765625e+01 -7.468087768554687500e+02 1.643677978515625000e+02
-1.742050170898437500e+01 -7.724841308593750000e+02 1.487594451904296875e+02
-3.974140167236328125e+01 -7.486903686523437500e+02 1.631261901855468750e+02
2.673317909240722656e+01 -8.165263671875000000e+02 1.676896209716796875e+02
-5.168709945678710938e+01 -7.390483398437500000e+02 6.697035217285156250e+01
-3.944097137451171875e+01 -7.497268066406250000e+02 1.643911743164062500e+02
-3.630223464965820312e+01 -7.507556762695312500e+02 1.548898315429687500e+02
-5.016437149047851562e+01 -7.457664184570312500e+02 5.893544006347656250e+01
-3.699395370483398438e+01 -7.549337768554687500e+02 1.452846832275390625e+02
-3.442697906494140625e+01 -7.542213745117187500e+02 1.101459808349609375e+02
-3.446098327636718750e+01 -7.607695312500000000e+02 1.208645172119140625e+02
-3.908554840087890625e+01 -7.580332641601562500e+02 1.493673095703125000e+02
-1.161915111541748047e+01 -7.720331420898437500e+02 1.522615661621093750e+02
-3.379126739501953125e+01 -7.488703613281250000e+02 1.731726379394531250e+02
-9.586788177490234375e+00 -7.817916259765625000e+02 1.594699707031250000e+02
-4.378113174438476562e+01 -7.467236328125000000e+02 1.947398223876953125e+02
-2.819822311401367188e+00 -7.867446289062500000e+02 1.670841064453125000e+02
-9.953583717346191406e+00 -7.820166625976562500e+02 1.627730102539062500e+02
-4.504678344726562500e+01 -7.478812866210937500e+02 1.871403503417968750e+02
-4.204222869873046875e+01 -7.490725097656250000e+02 1.339708404541015625e+02
-3.476423645019531250e+01 -7.524916381835937500e+02 1.508045806884765625e+02
-4.482689666748046875e+01 -7.459671020507812500e+02 2.060440826416015625e+02
-3.203656005859375000e+01 -7.386467895507812500e+02 2.265805969238281250e+02
-3.787463378906250000e+01 -7.506245727539062500e+02 1.418851165771484375e+02
-4.580251312255859375e+01 -7.454047241210937500e+02 1.962745513916015625e+02
1.263825035095214844e+01 -8.048375854492187500e+02 1.705889282226562500e+02
-3.883719635009765625e+01 -7.459063110351562500e+02 1.903356323242187500e+02
-4.010443496704101562e+01 -7.480086059570312500e+02 9.698162841796875000e+01
-1.231699943542480469e+01 -7.732222900390625000e+02 1.556298828125000000e+02
-4.133969497680664062e+01 -7.336604614257812500e+02 2.293662414550781250e+02
-1.885560798645019531e+01 -7.657421875000000000e+02 1.448824920654296875e+02
-3.381077957153320312e+01 -7.503328857421875000e+02 1.566280975341796875e+02
-4.289675903320312500e+01 -7.473964233398437500e+02 1.779335784912109375e+02
-3.193887329101562500e+01 -7.375668334960937500e+02 2.254738464355468750e+02
4.046041488647460938e+00 -8.053015747070312500e+02 1.700879364013671875e+02
-1.880896377563476562e+01 -7.643801879882812500e+02 1.391050720214843750e+02
-4.010132598876953125e+01 -7.466446533203125000e+02 1.133881454467773438e+02
-5.501231384277343750e+01 -7.439775390625000000e+02 6.388244628906250000e+01
-3.421085357666015625e+01 -7.558868408203125000e+02 1.474216766357421875e+02
7.627222061157226562e+00 -7.920779418945312500e+02 1.702862091064453125e+02
-3.592288970947265625e+01 -7.474479980468750000e+02 1.627761535644531250e+02
-3.724780273437500000e+01 -7.489542236328125000e+02 1.369881134033203125e+02
-4.251776885986328125e+01 -7.558087768554687500e+02 1.683825836181640625e+02
-3.822253799438476562e+01 -7.512620849609375000e+02 9.399978637695312500e+01
-3.259650039672851562e+01 -7.386958007812500000e+02 2.339923248291015625e+02
-7.011648559570312500e+01 -7.409396362304687500e+02 7.781466674804687500e+01
-4.310576629638671875e+01 -7.418915405273437500e+02 2.009823608398437500e+02
-1.336839008331298828e+01 -7.815079345703125000e+02 1.598802185058593750e+02
-2.246591377258300781e+01 -7.618597412109375000e+02 1.356481323242187500e+02
-5.614603042602539062e+00 -7.826534423828125000e+02 1.606513366699218750e+02
-3.379143524169921875e+01 -7.500098876953125000e+02 1.773722076416015625e+02
-3.641485214233398438e+01 -7.498673095703125000e+02 9.766587066650390625e+01
2.063301277160644531e+01 -8.142615966796875000e+02 1.733983917236328125e+02
-5.578967285156250000e+01 -7.399370727539062500e+02 7.349862670898437500e+01
9.791093826293945312e+00 -7.983918457031250000e+02 1.741654968261718750e+02
-2.452952575683593750e+01 -7.607158203125000000e+02 1.322914886474609375e+02
-7.001935958862304688e+00 -7.857199707031250000e+02 1.674389648437500000e+02
-3.571923446655273438e+01 -7.497609252929687500e+02 1.023653106689453125e+02
-6.980522918701171875e+01 -7.378996582031250000e+02 7.683559417724609375e+01
-2.890626907348632812e+00 -7.789260864257812500e+02 1.604718933105468750e+02
9.847604751586914062e+00 -8.087236328125000000e+02 1.737653656005859375e+02
-4.409308242797851562e+01 -7.535653076171875000e+02 1.817326354980468750e+02
-3.816624450683593750e+01 -7.462333374023437500e+02 1.108252639770507812e+02
-2.447301483154296875e+01 -7.721613769531250000e+02 1.487519683837890625e+02
-3.303071594238281250e+01 -7.361558837890625000e+02 2.311027526855468750e+02
-6.573657989501953125e+01 -7.407660522460937500e+02 7.824085235595703125e+01
-5.641944885253906250e+01 -7.373383789062500000e+02 7.638090515136718750e+01
-4.769079589843750000e+01 -7.401077880859375000e+02 3.065205383300781250e+01
2.729834175109863281e+01 -8.172310180664062500e+02 1.695789642333984375e+02
1.120133399963378906e+01 -8.061159057617187500e+02 1.713619995117187500e+02
-3.824600982666015625e+01 -7.521055908203125000e+02 1.262208404541015625e+02
-3.483658981323242188e+01 -7.499555053710937500e+02 1.724893798828125000e+02
-3.133329010009765625e+01 -7.580559082031250000e+02 1.246306381225585938e+02
-3.189157676696777344e+01 -7.557463378906250000e+02 1.239069366455078125e+02
-4.233699035644531250e+01 -7.462844238281250000e+02 1.938677368164062500e+02
-7.100472259521484375e+01 -7.374587402343750000e+02 7.616214752197265625e+01
-8.951717376708984375e+00 -7.833982543945312500e+02 1.614795379638671875e+02
-1.364033603668212891e+01 -7.845284423828125000e+02 1.645266418457031250e+02
-3.904711914062500000e+01 -7.487144165039062500e+02 1.018104095458984375e+02
-3.662500000000000000e+01 -7.472410278320312500e+02 1.488220825195312500e+02
-3.997482681274414062e+01 -7.445173339843750000e+02 5.618454742431640625e+01
-3.580655670166015625e+01 -7.453648071289062500e+02 2.088779754638671875e+02
-4.466941070556640625e+01 -7.499531250000000000e+02 1.813435668945312500e+02
-4.530743408203125000e+01 -7.419639282226562500e+02 1.013451385498046875e+01
-1.967742729187011719e+01 -7.748231811523437500e+02 1.580420684814453125e+02
-3.958925247192382812e+01 -7.511245117187500000e+02 1.301909790039062500e+02
-4.440367507934570312e+01 -7.428128051757812500e+02 2.182435607910156250e+01
-4.146548080444335938e+01 -7.464058837890625000e+02 1.110096740722656250e+02
-2.940433120727539062e+01 -7.284239501953125000e+02 2.441484375000000000e+02
-5.685945129394531250e+01 -7.483992309570312500e+02 5.880017089843750000e+01
1.363657188415527344e+01 -8.094874267578125000e+02 1.734921569824218750e+02
-6.083976745605468750e+01 -7.431711425781250000e+02 6.557557678222656250e+01
-6.847038269042968750e+01 -7.413810424804687500e+02 7.321475219726562500e+01
-9.109494209289550781e+00 -7.832086791992187500e+02 1.646324005126953125e+02
-2.609170341491699219e+01 -7.698610229492187500e+02 1.408395996093750000e+02
-3.187766265869140625e+01 -7.369468383789062500e+02 2.232003631591796875e+02
-3.718808746337890625e+01 -7.458665771484375000e+02 1.851448822021484375e+02
-3.993751144409179688e+01 -7.484906616210937500e+02 1.657970275878906250e+02
-6.906707763671875000e+01 -7.396577148437500000e+02 7.218023681640625000e+01
-3.738224029541015625e+01 -7.480968017578125000e+02 1.499073181152343750e+02
-8.535813331604003906e+00 -7.766238403320312500e+02 1.601578674316406250e+02
-1.899436569213867188e+01 -7.652224121093750000e+02 1.416537170410156250e+02
-4.176695251464843750e+01 -7.456729125976562500e+02 7.249938964843750000e+01
7.076072692871093750e-02 -7.883074951171875000e+02 1.658022613525390625e+02
2.404759025573730469e+01 -8.197738037109375000e+02 1.692278594970703125e+02
-3.940396118164062500e+01 -7.471085205078125000e+02 1.730796508789062500e+02
-1.008445072174072266e+01 -7.802720947265625000e+02 1.590236816406250000e+02
-2.099707031250000000e+01 -7.699866943359375000e+02 1.500880889892578125e+02
-3.067860031127929688e+01 -7.228859252929687500e+02 2.534057617187500000e+02
1.955631828308105469e+01 -8.069618530273437500e+02 1.697194213867187500e+02
-4.461775970458984375e+01 -7.427416992187500000e+02 1.903672790527343750e+01
-3.347646331787109375e+01 -7.515593872070312500e+02 1.581784973144531250e+02
-4.264361572265625000e+01 -7.467627563476562500e+02 1.797615051269531250e+02
-3.445896530151367188e+01 -7.515256958007812500e+02 1.631362762451171875e+02
-3.674786376953125000e+01 -7.499338989257812500e+02 1.492733001708984375e+02
-2.903126525878906250e+01 -7.554762573242187500e+02 1.293033752441406250e+02
-1.963691711425781250e+00 -7.885200805664062500e+02 1.687370300292968750e+02
-1.741315841674804688e+00 -7.929513549804687500e+02 1.704560546875000000e+02
1.774403190612792969e+01 -8.073270263671875000e+02 1.733357696533203125e+02
1.480944633483886719e+01 -8.120750122070312500e+02 1.703921203613281250e+02
-4.219899749755859375e+01 -7.525026245117187500e+02 1.450034027099609375e+02
-6.595462036132812500e+01 -7.396702270507812500e+02 7.357714080810546875e+01
-3.139754104614257812e+01 -7.354060058593750000e+02 2.333540649414062500e+02
-3.477732086181640625e+01 -7.468878173828125000e+02 1.749926605224609375e+02
-3.882332229614257812e+01 -7.320694580078125000e+02 2.314020996093750000e+02
-3.821817016601562500e+01 -7.430493164062500000e+02 2.097622375488281250e+02
-3.986619567871093750e+01 -7.478936157226562500e+02 1.670495910644531250e+02
4.364418029785156250e+00 -7.955681762695312500e+02 1.716113891601562500e+02
-4.427114105224609375e+01 -7.489371337890625000e+02 1.882483062744140625e+02
-3.242065429687500000e+01 -7.557420043945312500e+02 1.616652374267578125e+02
-4.715160369873046875e+01 -7.435112915039062500e+02 7.244590759277343750e+00
-2.059532165527343750e+00 -7.850200805664062500e+02 1.686186218261718750e+02
-3.485026931762695312e+01 -7.391950073242187500e+02 2.217781677246093750e+02
-3.255926895141601562e+01 -7.469997558593750000e+02 2.086802673339843750e+02
-9.347356796264648438e+00 -7.861593017578125000e+02 1.635976867675781250e+02
-1.766811180114746094e+01 -7.703608398437500000e+02 1.457919769287109375e+02
-1.374443817138671875e+01 -7.650282592773437500e+02 1.524798126220703125e+02
-6.753540802001953125e+01 -7.398189086914062500e+02 7.462779235839843750e+01
-3.262175750732421875e+01 -7.496902465820312500e+02 1.739406433105468750e+02
-4.596195220947265625e+01 -7.491526489257812500e+02 1.890532073974609375e+02
-3.314621353149414062e+01 -7.319429321289062500e+02 2.416096801757812500e+02
-4.516716003417968750e+01 -7.482184448242187500e+02 1.903187408447265625e+02
-5.472974777221679688e+00 -7.814428100585937500e+02 1.637542266845703125e+02
-3.832496261596679688e+01 -7.392456054687500000e+02 2.134144592285156250e+02
-3.473970031738281250e+01 -7.371712036132812500e+02 2.325050048828125000e+02
-3.880720138549804688e+01 -7.553796386718750000e+02 1.429574279785156250e+02
-5.426286315917968750e+01 -7.508231201171875000e+02 5.873901367187500000e+01
-1.619801139831542969e+01 -7.808272705078125000e+02 1.597967834472656250e+02
-5.383432769775390625e+01 -7.429542846679687500e+02 6.735755920410156250e+01
-3.496137237548828125e+01 -7.392851562500000000e+02 2.199091033935546875e+02
-3.363930511474609375e+01 -7.507476806640625000e+02 1.682352294921875000e+02
-2.596435546875000000e+01 -7.581951904296875000e+02 1.272699813842773438e+02
-1.286517047882080078e+01 -7.738810424804687500e+02 1.510438232421875000e+02
-4.735682296752929688e+01 -7.431397094726562500e+02 1.875967407226562500e+01
-4.055300140380859375e+01 -7.516544189453125000e+02 1.346277923583984375e+02
-3.430940246582031250e+01 -7.451442871093750000e+02 1.830156860351562500e+02
-3.206570434570312500e+01 -7.521784667968750000e+02 1.166500854492187500e+02
-2.069089317321777344e+01 -7.726089477539062500e+02 1.483867187500000000e+02
-3.831928253173828125e+01 -7.466730346679687500e+02 9.743196105957031250e+01
1.589261817932128906e+01 -8.030869750976562500e+02 1.728555603027343750e+02
-3.797351837158203125e+01 -7.490636596679687500e+02 1.073548049926757812e+02
-2.350269889831542969e+01 -7.623013916015625000e+02 1.360178680419921875e+02
-3.712206268310546875e+01 -7.487420043945312500e+02 1.615788421630859375e+02
-4.392982101440429688e+01 -7.483478393554687500e+02 1.815907592773437500e+02
-4.145726776123046875e+01 -7.545213623046875000e+02 1.269550247192382812e+02
-3.894397735595703125e+01 -7.471017456054687500e+02 1.763365936279296875e+02
-5.290615844726562500e+01 -7.422501220703125000e+02 6.438877105712890625e+01
-6.915263175964355469e+00 -7.875908813476562500e+02 1.636809539794921875e+02
-4.659608459472656250e+01 -7.402026367187500000e+02 4.913978576660156250e+01
-3.453331375122070312e+01 -7.529457397460937500e+02 1.517148284912109375e+02
-3.820157241821289062e+01 -7.467182617187500000e+02 9.474697875976562500e+01
1.890956687927246094e+01 -8.076125488281250000e+02 1.741250152587890625e+02
-5.619136047363281250e+01 -7.411157226562500000e+02 6.754990386962890625e+01
-4.012800979614257812e+01 -7.498709716796875000e+02 9.575094604492187500e+01
-3.111328506469726562e+01 -7.378692626953125000e+02 2.327265167236328125e+02
-4.293112945556640625e+01 -7.484485473632812500e+02 1.246049957275390625e+02
-5.224029541015625000e+00 -7.720129394531250000e+02 1.572045288085937500e+02
-2.861713027954101562e+01 -7.601077880859375000e+02 1.290273132324218750e+02
6.891571044921875000e+00 -8.011380615234375000e+02 1.712258300781250000e+02
-6.923703002929687500e+01 -7.375722045898437500e+02 7.335115051269531250e+01
-5.206034088134765625e+01 -7.406361083984375000e+02 6.436460876464843750e+01
-3.041422271728515625e+01 -7.615495605468750000e+02 1.315176391601562500e+02
-4.328448486328125000e+01 -7.492319946289062500e+02 1.823894805908203125e+02
-3.219171524047851562e+01 -7.316682128906250000e+02 2.399138946533203125e+02
-5.468917083740234375e+01 -7.416406860351562500e+02 6.027983856201171875e+01
-4.504467010498046875e+01 -7.448128662109375000e+02 3.527663421630859375e+01
-2.073000907897949219e+01 -7.661168212890625000e+02 1.445624542236328125e+02
-5.510650634765625000e+00 -7.961282958984375000e+02 1.715806274414062500e+02
-4.208078765869140625e+01 -7.480593261718750000e+02 1.034394760131835938e+02
-2.114696693420410156e+01 -7.654378051757812500e+02 1.437275848388671875e+02
-2.898996353149414062e+01 -7.637964477539062500e+02 1.300333404541015625e+02
-3.701948165893554688e+01 -7.495117797851562500e+02 1.754995117187500000e+02
-3.980740737915039062e+01 -7.529904785156250000e+02 1.515478820800781250e+02
-3.114717102050781250e+01 -7.368912353515625000e+02 2.367522277832031250e+02
-1.691950988769531250e+01 -7.701976928710937500e+02 1.493382568359375000e+02
-6.272461700439453125e+01 -7.407243652343750000e+02 7.178146362304687500e+01
-3.612267684936523438e+01 -7.495499267578125000e+02 1.486504974365234375e+02
-3.971585845947265625e+01 -7.516947631835937500e+02 1.145609436035156250e+02
-3.724432373046875000e+01 -7.513249511718750000e+02 1.548711853027343750e+02
-3.574192428588867188e+01 -7.503403930664062500e+02 1.310173034667968750e+02
-3.281550979614257812e+01 -7.338677978515625000e+02 2.383840942382812500e+02
-2.378526687622070312e+01 -7.753760986328125000e+02 1.507822875976562500e+02
-9.812049865722656250e-01 -7.887269287109375000e+02 1.699509887695312500e+02
-2.588401794433593750e+01 -7.619058837890625000e+02 1.309235382080078125e+02
-4.145517730712890625e+01 -7.494939575195312500e+02 9.445251464843750000e+01
-4.470490264892578125e+01 -7.450017089843750000e+02 1.921317138671875000e+02
-1.827696037292480469e+01 -7.660505981445312500e+02 1.423236846923828125e+02
-3.936928939819335938e+01 -7.554336547851562500e+02 1.573330535888671875e+02
-3.986827850341796875e+01 -7.449182739257812500e+02 6.967645263671875000e+01
-3.802886962890625000e+01 -7.462391357421875000e+02 1.907548522949218750e+02
-3.881124496459960938e+01 -7.483661499023437500e+02 1.136503448486328125e+02
-7.676463127136230469e+00 -7.806304931640625000e+02 1.599503784179687500e+02
-3.558620834350585938e+01 -7.509701538085937500e+02 1.622581481933593750e+02
-4.305117416381835938e+01 -7.449061279296875000e+02 5.283518218994140625e+01
-3.936101531982421875e+01 -7.489089965820312500e+02 9.256756591796875000e+01
-4.534452438354492188e+01 -7.459038696289062500e+02 6.465340423583984375e+01
-2.592825317382812500e+01 -7.679541625976562500e+02 1.356265869140625000e+02
-3.153704071044921875e+01 -7.463770751953125000e+02 2.065423278808593750e+02
-4.173301315307617188e+01 -7.515776367187500000e+02 1.767454528808593750e+02
-6.670686340332031250e+01 -7.402110595703125000e+02 6.796746063232421875e+01
-4.194465637207031250e+01 -7.498990478515625000e+02 1.739079589843750000e+02
-6.041887664794921875e+01 -7.416089477539062500e+02 6.443177032470703125e+01
-4.234213256835937500e+01 -7.500290527343750000e+02 1.685333099365234375e+02
-5.977051544189453125e+01 -7.441405639648437500e+02 6.580464172363281250e+01
-4.224760437011718750e+01 -7.545836791992187500e+02 1.369951019287109375e+02
1.319522857666015625e+00 -8.021778564453125000e+02 1.718545532226562500e+02
-7.758893013000488281e+00 -7.715863647460937500e+02 1.542804870605468750e+02
-3.490956115722656250e+01 -7.394824218750000000e+02 2.138255615234375000e+02
-1.664305114746093750e+01 -7.792271728515625000e+02 1.559458923339843750e+02
-6.715418243408203125e+01 -7.423392333984375000e+02 6.776463317871093750e+01
-4.351358032226562500e+01 -7.409131469726562500e+02 4.321668243408203125e+01
-3.138492584228515625e+01 -7.605347900390625000e+02 1.259989624023437500e+02
-5.522894287109375000e+01 -7.485335693359375000e+02 6.113834381103515625e+01
-4.454399108886718750e+01 -7.446816406250000000e+02 4.635691833496093750e+01
-4.261280059814453125e+01 -7.521156616210937500e+02 1.573377075195312500e+02
-2.013897323608398438e+01 -7.686300659179687500e+02 1.440836029052734375e+02
4.993179321289062500e+00 -7.908338623046875000e+02 1.723177642822265625e+02
-5.448497009277343750e+01 -7.394832763671875000e+02 7.388897705078125000e+01
-4.483252716064453125e+01 -7.414320678710937500e+02 1.983158874511718750e+01
-3.111140823364257812e+01 -7.497331542968750000e+02 1.866496124267578125e+02
-1.635625076293945312e+01 -7.793804931640625000e+02 1.582612915039062500e+02
-4.578734970092773438e+01 -7.479931640625000000e+02 1.824067230224609375e+02
-4.157967376708984375e+01 -7.466475219726562500e+02 1.967969055175781250e+02
-4.107441711425781250e+01 -7.537031250000000000e+02 1.749546508789062500e+02
7.081045150756835938e+00 -8.002397460937500000e+02 1.680185394287109375e+02
-3.368687057495117188e+01 -7.437109375000000000e+02 2.139329681396484375e+02
